ply
            format ascii 1.0
            element vertex 11449
            property float x
            property float y
            property float z
            property uchar blue
            property uchar green
            property uchar red
            end_header
1252.335358 -1088.411331 1306.228638 214 219 220
1250.636196 -1087.057972 1307.752800 58 56 55
1250.409603 -1086.751175 1307.485485 150 154 153
1243.378448 -1081.694794 1310.986137 80 79 75
1246.965122 -1083.819962 1309.837627 90 91 89
1262.829971 -1091.760921 1302.849960 201 210 213
1135.507107 -1007.835579 1439.302540 177 188 195
1259.413624 -1089.100170 1304.319477 181 192 196
1165.437031 -1032.600403 1394.432545 233 237 241
1165.437031 -1032.600403 1394.432545 233 237 241
1179.346466 -1042.747879 1375.345421 230 234 237
1169.240475 -1035.861015 1393.008327 134 140 147
1255.188560 -1085.517025 1293.191051 232 233 234
1179.754543 -1043.133640 1376.456165 225 227 227
1183.580589 -1045.807362 1370.748425 238 242 243
1207.163239 -1060.160732 1339.833164 228 233 232
1226.086426 -1068.792343 1318.440056 205 207 209
1199.333668 -1010.330582 1338.407516 201 197 192
1234.283352 -1086.583233 1316.208267 129 134 133
1187.952900 -1003.264141 1341.269398 99 96 92
1232.871342 -1086.218071 1304.003906 138 140 140
934.297848 -338.381553 2098.348808 174 180 179
1186.202240 -1005.448627 1337.600708 48 45 41
1186.202240 -1005.448627 1337.600708 48 45 41
1187.137032 -1006.966400 1339.605904 48 45 41
1187.137032 -1006.966400 1339.605904 48 45 41
1187.167549 -1007.475567 1339.282990 48 45 41
1187.735558 -1008.194637 1340.598869 49 46 42
1187.784672 -1008.817291 1340.802765 55 52 48
1187.784672 -1008.817291 1340.802765 55 52 48
1185.516357 -1007.473183 1336.334038 81 78 74
1185.798836 -1007.792473 1336.971283 84 81 77
1187.214184 -1009.841633 1339.398766 43 40 36
1187.214184 -1009.841633 1339.398766 43 40 36
1187.165356 -1009.924889 1339.210510 85 82 78
1186.443710 -1009.552097 1337.990284 92 89 85
1186.443710 -1009.552097 1337.990284 92 89 85
1186.328030 -1009.580517 1337.838745 45 42 38
1185.458279 -1009.112740 1336.304665 77 74 70
1187.156296 -1010.478783 1339.381695 37 34 30
1187.156296 -1010.478783 1339.381695 37 34 30
1185.000324 -1008.783627 1335.784817 79 76 72
1188.469410 -1011.496353 1341.886520 50 47 43
1186.387634 -1010.670757 1337.789249 36 33 29
1185.605145 -1010.212994 1336.740398 39 36 32
1187.082195 -1012.061596 1338.925934 35 32 28
1186.248875 -1011.608791 1337.434101 35 32 28
1188.642216 -1013.270664 1342.220116 96 93 89
1187.635231 -1012.861824 1340.013504 47 44 40
1187.635231 -1012.861824 1340.013504 47 44 40
1187.678719 -1013.140392 1340.175438 38 35 31
1187.086678 -1013.139820 1338.856411 89 86 82
1182.084179 -1009.044933 1331.026268 72 69 65
1185.057926 -1011.767101 1335.275841 78 75 71
1184.593582 -1011.290359 1334.775639 84 81 77
1156.147766 -967.883205 1348.516560 15 12 8
1187.897205 -1013.989830 1340.257740 93 90 86
1186.040401 -1012.580109 1337.036800 33 30 26
1187.316322 -1013.782597 1339.072227 95 92 88
1186.162567 -1012.948513 1337.220860 38 35 31
1187.357521 -1014.087868 1339.201736 35 32 28
1187.829494 -1014.530754 1339.957619 83 80 76
971.241856 -530.323553 1947.941208 155 160 161
971.241856 -530.323553 1947.941208 155 160 161
1183.695030 -1011.249733 1333.505821 60 57 53
1188.537121 -1015.170383 1341.329861 94 90 89
1186.385727 -1013.555717 1337.531853 88 85 81
1185.771275 -1013.072681 1336.803722 80 77 73
1186.154747 -1013.658810 1337.153530 36 33 29
1186.387730 -1013.955021 1337.452507 79 76 72
1188.369083 -1015.452576 1340.918255 44 41 37
1183.424282 -1011.499119 1332.962513 74 71 67
1187.135887 -1014.684772 1338.747311 34 31 27
1187.376213 -1015.044212 1338.938904 35 32 28
1186.655521 -1014.292240 1338.157082 34 31 27
1189.701843 -1016.487789 1343.932247 60 57 53
1189.701843 -1016.487789 1343.932247 60 57 53
1188.082886 -1015.556717 1340.504932 37 34 30
1186.674881 -1014.547634 1338.012123 94 91 87
1186.486816 -1014.508057 1337.875843 29 26 22
1186.962128 -1015.278721 1338.218498 32 29 25
1201.215935 -1039.032555 1332.260609 94 91 87
1185.212994 -1013.997841 1335.653400 79 76 72
1185.212994 -1013.997841 1335.653400 79 76 72
1177.821541 -1008.193493 1338.984394 60 55 52
1186.605835 -1015.242290 1337.978935 22 19 15
1189.518833 -1017.413330 1343.227482 45 42 38
1189.644146 -1017.699432 1343.336105 58 55 51
1185.711956 -1014.839840 1336.315346 27 24 20
1186.991596 -1015.836620 1338.601875 34 31 27
1187.348461 -1016.385651 1338.723469 29 26 22
1187.363720 -1016.509438 1338.826084 79 76 72
1187.605953 -1016.788006 1339.384365 66 63 59
1188.021469 -1017.220879 1339.909840 79 76 72
1188.009644 -1017.300892 1339.789295 44 41 37
1187.151241 -1016.664505 1338.488388 71 68 64
1183.967590 -1014.246082 1333.669853 70 67 63
1183.967590 -1014.246082 1333.669853 70 67 63
1186.387634 -1016.370487 1336.999035 72 69 65
1187.985992 -1017.586803 1339.688396 31 28 24
1188.578701 -1017.989254 1340.827084 103 100 96
1184.717655 -1014.996338 1334.721565 74 71 67
1186.374569 -1016.346645 1337.280178 74 71 67
1187.578869 -1017.466927 1338.975811 30 27 23
1187.024975 -1016.973305 1338.310909 79 76 72
1188.420105 -1018.236828 1340.375042 37 34 30
1187.855911 -1017.983913 1339.545441 30 27 23
1185.835171 -1016.819763 1336.151695 24 21 17
1185.835171 -1016.819763 1336.151695 24 21 17
1181.325245 -1012.905693 1330.312729 64 61 57
1188.237190 -1018.827534 1339.906025 86 83 79
1185.563469 -1016.748428 1335.703373 65 62 58
1189.928627 -1020.147038 1343.289566 108 104 103
1188.338947 -1019.142818 1340.055466 80 77 73
1185.190582 -1016.615009 1335.309696 20 17 13
1185.154629 -1016.722775 1335.028839 30 27 23
1186.581993 -1017.991352 1337.187386 73 70 66
1187.667274 -1018.834591 1338.998795 83 80 76
1189.003944 -1019.906139 1341.133595 88 85 81
1188.802528 -1020.284176 1340.721703 35 32 28
1188.890934 -1020.385075 1340.813351 90 87 83
1186.087132 -1018.094254 1336.669064 23 20 16
1188.407707 -1020.116234 1339.954853 78 75 71
1185.284805 -1017.656994 1335.256100 76 73 69
1188.662338 -1020.370007 1340.443134 34 31 27
1187.321758 -1019.392490 1338.116550 97 94 90
1185.458374 -1017.857265 1335.488510 76 73 69
1183.713627 -1016.300297 1333.353519 72 69 65
1188.736248 -1020.431328 1340.643120 88 85 81
1187.733364 -1019.806099 1338.798332 29 26 22
1188.469219 -1020.341015 1340.130997 78 75 71
1185.719013 -1018.333721 1335.852909 18 15 11
1188.708305 -1020.725536 1340.403557 86 83 79
1184.858131 -1017.591095 1334.727097 23 20 16
1187.791538 -1020.074844 1338.840008 74 71 67
1187.264824 -1019.758797 1337.885380 80 77 73
1188.504696 -1020.652103 1340.063763 33 30 26
1186.182022 -1018.939972 1336.402130 71 68 64
1186.182022 -1018.939972 1336.402130 71 68 64
1187.756634 -1020.217037 1338.721752 25 22 18
1188.321781 -1020.721626 1339.530277 34 31 28
977.639294 -614.352226 1877.145767 215 217 217
977.639294 -614.352226 1877.145767 215 217 217
1185.843468 -1018.755150 1335.997200 75 72 68
1185.661221 -1018.598557 1335.791779 80 77 73
1188.432980 -1020.952511 1339.759731 79 76 72
1188.613224 -1021.254063 1339.928913 29 26 22
1186.300755 -1019.534302 1336.507607 21 18 14
1188.426971 -1021.241760 1339.672756 35 32 28
1187.216854 -1020.329094 1337.744904 24 21 17
1182.629681 -1016.388416 1332.010365 64 61 57
1187.391186 -1020.766926 1337.928200 77 74 70
1187.880135 -1021.136379 1338.749695 24 21 17
1187.880135 -1021.136379 1338.749695 24 21 17
1185.578442 -1019.266129 1335.411453 88 85 81
1186.825657 -1020.569229 1336.965752 73 70 66
1187.967014 -1021.668625 1338.821411 27 23 22
1185.307407 -1019.549942 1335.001659 72 69 65
979.843044 -634.300232 1865.426826 217 218 218
1182.954597 -1017.826080 1332.185555 65 62 58
1187.631130 -1021.886826 1338.134861 74 71 67
1185.497665 -1020.313168 1334.953403 65 62 58
1186.511040 -1021.131611 1336.498451 83 80 76
1184.959221 -1019.862843 1334.560966 65 62 58
1187.814522 -1022.445011 1338.368511 21 18 14
1187.163544 -1022.059631 1337.098598 72 69 65
1188.176537 -1022.934818 1338.726521 71 68 64
1187.417126 -1022.333241 1337.660027 71 68 64
1184.949493 -1020.338058 1334.291649 74 71 67
1188.135147 -1022.974300 1338.639736 18 15 11
1187.238598 -1022.282505 1337.384796 27 24 20
1184.919548 -1020.420456 1334.407330 16 13 9
1184.229851 -1019.970798 1333.492279 61 58 54
1188.455391 -1023.497486 1339.104748 28 25 21
1188.375473 -1023.711205 1338.770580 25 22 18
1189.659786 -1024.631500 1341.012287 37 34 30
1186.281776 -1022.030544 1335.959530 63 60 56
1197.442627 -1044.817734 1333.449173 77 85 86
1186.833763 -1022.748280 1336.441422 23 20 16
1189.038944 -1024.410725 1339.916325 25 22 18
1187.896347 -1023.592758 1338.069248 27 24 20
1189.972019 -1025.190353 1341.472626 97 94 90
1187.716484 -1023.575783 1337.780952 81 78 74
1189.589977 -1025.110149 1340.542507 76 73 69
1187.367535 -1023.354912 1337.289810 65 62 58
1188.288689 -1024.154663 1338.719368 74 71 67
1189.115334 -1024.847603 1339.784908 73 70 66
1190.068150 -1025.546360 1341.411209 40 37 33
1185.844898 -1022.312355 1335.071850 21 18 14
1187.293625 -1023.528671 1337.005520 19 16 12
1189.011478 -1024.923229 1339.439392 27 24 20
1184.283447 -1021.020317 1333.417034 63 60 56
1188.455486 -1024.586868 1338.759232 16 13 9
1189.126015 -1025.351238 1339.569283 29 26 22
1187.902069 -1024.386692 1337.806606 71 68 64
1188.432598 -1024.836159 1338.635635 83 80 76
1188.457108 -1025.079823 1338.461018 22 19 15
1188.544846 -1025.116158 1338.710594 19 16 12
1188.996601 -1025.478077 1339.358330 29 26 22
953.497314 -631.446600 1854.811859 218 219 219
953.497314 -631.446600 1854.811859 218 219 219
1184.204769 -1021.669674 1333.225632 54 51 47
1187.153339 -1024.213314 1336.720085 20 17 13
1186.203861 -1023.447132 1335.464573 61 58 54
1187.349701 -1024.360943 1337.087059 69 66 62
1187.880707 -1024.905777 1337.673855 27 24 20
1187.412167 -1024.699974 1336.932278 20 17 13
1188.305950 -1025.454330 1338.119698 24 21 17
1188.407898 -1025.500393 1338.400650 70 67 63
1188.167858 -1025.355339 1337.932682 71 68 64
1187.667465 -1025.039101 1337.031174 15 12 8
1188.624668 -1025.788784 1338.476753 21 18 14
1187.325573 -1024.750805 1336.824608 20 17 13
1188.329983 -1025.608826 1338.214970 23 20 16
988.450146 -685.454941 1818.628311 203 208 207
1186.743450 -1024.536705 1335.850811 16 13 9
1189.577007 -1026.936436 1339.691544 72 69 65
1189.777851 -1027.057743 1340.159702 24 21 17
1188.731098 -1026.289177 1338.548851 31 28 24
1187.981987 -1025.732708 1337.508488 54 51 47
1187.467003 -1025.452614 1336.625576 63 60 56
1188.562012 -1026.282215 1338.297844 70 67 63
1188.562012 -1026.282215 1338.297844 70 67 63
1187.028313 -1025.120354 1336.094189 58 55 51
1188.216686 -1026.091671 1337.689114 25 22 18
1186.945152 -1024.987316 1336.309433 16 13 9
1188.582039 -1026.470280 1338.163853 20 17 13
1188.582039 -1026.470280 1338.163853 20 17 13
1188.340092 -1026.297379 1337.845898 23 20 16
1188.241196 -1026.353264 1337.568760 68 65 61
1188.313484 -1026.407337 1337.665653 21 18 14
1187.285328 -1025.666332 1336.272907 63 60 56
1188.786983 -1026.910400 1338.383770 63 60 56
1189.667034 -1027.581596 1339.688206 26 23 19
1189.667034 -1027.581596 1339.688206 26 23 19
1187.132645 -1025.646496 1336.122894 64 61 57
1187.132645 -1025.646496 1336.122894 64 61 57
1190.423679 -1028.191566 1340.921116 33 30 26
1190.246010 -1028.210831 1340.210438 31 28 24
1187.025547 -1025.584221 1336.008453 58 55 51
1189.998245 -1028.001881 1340.085697 27 24 20
1188.411617 -1026.838684 1337.820244 70 67 63
1187.137699 -1025.756836 1336.326599 20 17 13
1188.967609 -1027.375221 1338.363171 17 14 10
1188.304615 -1026.955032 1337.397385 74 71 67
1183.953762 -1023.221874 1332.688808 65 62 58
1188.409710 -1026.964569 1337.919807 23 20 16
1186.660290 -1025.615215 1335.496998 65 62 58
1188.384438 -1027.097225 1337.669849 18 15 11
1188.384438 -1027.097225 1337.669849 18 15 11
1189.228344 -1027.943420 1338.582039 65 62 58
1190.154934 -1028.658867 1339.951515 29 26 22
1190.145779 -1028.638840 1340.070629 91 88 84
1189.220619 -1028.012753 1338.710690 17 14 10
1185.030937 -1024.554539 1333.709335 50 45 42
1188.446140 -1027.464008 1337.538242 64 61 57
1188.446140 -1027.464008 1337.538242 64 61 57
1188.069916 -1027.227116 1336.896992 59 56 52
1188.072205 -1027.185917 1337.027836 65 62 58
1189.001656 -1027.934074 1338.280392 18 15 11
1189.913654 -1028.684616 1339.684963 26 23 19
1187.799740 -1027.017975 1336.867428 16 13 9
1189.143085 -1028.192997 1338.327599 80 77 73
1186.238289 -1025.730133 1335.118294 19 14 11
1190.078163 -1028.925037 1339.753914 33 30 26
1190.346909 -1029.085636 1340.294647 32 29 25
1186.927509 -1026.448441 1335.523129 55 50 47
1187.663555 -1027.093887 1336.392021 69 64 61
1187.752724 -1027.239037 1336.514091 20 15 12
1190.014362 -1029.026413 1339.602375 27 24 20
1188.742924 -1028.098774 1337.672329 21 18 14
1190.054035 -1029.058933 1339.679241 78 75 71
1190.054035 -1029.058933 1339.679241 78 75 71
1186.918736 -1026.686954 1335.419083 56 51 48
1188.999557 -1028.362560 1338.046074 21 18 14
1187.961674 -1027.561283 1336.648083 18 14 10
1189.145184 -1028.501320 1338.321590 73 70 66
1188.499641 -1028.112125 1337.142658 25 20 17
1189.001942 -1028.590679 1337.847805 22 19 15
1189.001942 -1028.590679 1337.847805 22 19 15
1188.391495 -1028.125191 1337.008762 20 17 13
1188.391495 -1028.125191 1337.008762 20 17 13
1188.396358 -1028.172398 1337.102032 80 75 72
1188.306332 -1028.149986 1336.980438 19 16 12
1189.034939 -1028.745174 1337.966919 74 71 67
1189.034939 -1028.745174 1337.966919 74 71 67
1189.710522 -1029.272652 1338.884735 71 68 64
1185.547352 -1025.902462 1333.942032 69 64 61
1189.138317 -1028.951740 1338.044071 21 18 14
1188.282013 -1028.318977 1336.847115 77 72 69
1187.955666 -1028.095818 1336.372375 10 5 3
1187.269402 -1027.542496 1335.583401 60 55 52
1188.440323 -1028.636265 1337.038136 65 60 57
1190.403652 -1030.229092 1339.733219 22 19 15
1189.545727 -1029.662132 1338.351631 26 23 19
1188.014126 -1028.491402 1336.267376 19 14 11
1188.564491 -1028.914165 1337.099838 19 14 11
1189.054012 -1029.331398 1337.721157 61 56 53
1189.142990 -1029.409027 1337.805367 19 16 12
1189.410686 -1029.652405 1338.162613 21 18 14
1190.419292 -1030.380726 1339.793015 75 72 68
1189.845562 -1030.172062 1338.701534 77 74 70
1185.244083 -1026.375675 1333.517647 54 51 47
1191.529465 -1031.389427 1341.429806 47 42 39
1191.078377 -1031.065178 1340.760899 34 30 29
1188.138390 -1029.001713 1336.228561 20 17 13
1187.918949 -1028.859997 1335.951710 47 43 40
1189.678288 -1030.242634 1338.333893 65 62 58
1189.678288 -1030.242634 1338.333893 65 62 58
1189.187527 -1029.949570 1337.496185 21 16 13
1190.284348 -1030.770874 1339.141750 22 19 15
1189.254856 -1030.070210 1337.686348 19 14 11
1186.769199 -1028.041649 1334.936523 55 50 47
1188.630962 -1029.681778 1336.952877 21 16 13
1187.305260 -1028.652191 1335.323048 57 52 49
1189.970589 -1030.972481 1338.321400 19 16 12
1187.514496 -1029.029083 1335.414982 13 8 5
1188.084984 -1029.557514 1335.957432 12 7 4
1189.188385 -1030.545425 1337.276173 67 62 59
1187.648964 -1029.354954 1335.588074 12 7 4
1188.082886 -1029.783821 1335.902977 66 61 58
1188.929176 -1030.422878 1337.079620 61 56 53
1190.319347 -1031.591988 1338.823128 19 16 12
1188.920975 -1030.543423 1336.935520 18 13 10
1190.248871 -1031.596947 1338.583851 72 69 65
1189.581013 -1031.088924 1337.715340 58 54 50
1186.289883 -1028.435326 1333.968544 66 61 58
1189.582157 -1031.111145 1337.794685 19 16 12
1188.038921 -1029.916954 1335.831642 14 9 6
1187.662792 -1029.657269 1335.315514 11 6 3
1185.845375 -1028.115082 1333.625507 49 44 41
1187.859440 -1029.842663 1335.691643 11 6 4
1187.179756 -1029.330540 1334.874058 15 10 7
1189.703751 -1031.471443 1337.667465 13 8 5
1186.868477 -1029.207802 1334.529209 47 42 39
1186.868477 -1029.207802 1334.529209 47 42 39
1186.934566 -1029.287815 1334.662914 10 5 2
1189.326668 -1031.293201 1337.164974 62 57 54
1189.016438 -1031.015205 1336.921787 12 7 4
1188.029575 -1030.252552 1335.700321 72 67 64
1188.075924 -1030.352592 1335.807705 8 3 1
1189.838982 -1031.853199 1337.834072 72 69 65
1187.673092 -1030.173683 1335.242176 11 6 3
1186.738205 -1029.403496 1334.318733 9 4 2
1186.467457 -1029.156303 1334.168816 10 5 2
1187.807846 -1030.349064 1335.301685 65 60 57
1191.341496 -1033.049393 1339.926624 78 74 73
1186.627674 -1029.439735 1334.107399 8 3 0
1190.164566 -1032.276630 1338.162804 70 65 62
1188.523006 -1031.027031 1336.074352 60 55 52
1189.637089 -1031.920719 1337.380409 68 63 60
1188.966465 -1031.400108 1336.696339 18 13 10
1189.566231 -1031.931877 1337.253666 13 8 5
1189.182568 -1031.716919 1336.778736 56 51 48
1190.002346 -1032.371426 1337.771606 70 65 62
1190.002346 -1032.371426 1337.771606 70 65 62
1190.464497 -1032.776451 1338.261318 72 68 64
1186.995316 -1030.019283 1334.237957 10 5 2
1188.588238 -1031.346321 1336.038589 9 4 2
1187.366390 -1030.368519 1334.676266 63 58 55
1189.422894 -1032.006550 1337.042427 18 13 10
1189.655876 -1032.259464 1337.255001 70 65 62
1186.954498 -1030.150890 1334.099102 9 4 2
1186.261559 -1029.566574 1333.571053 8 3 1
1188.531590 -1031.525612 1335.821724 13 8 5
1188.531590 -1031.525612 1335.821724 13 8 5
1189.628983 -1032.403088 1337.128639 11 6 4
1190.667534 -1033.191872 1338.502598 16 11 10
1187.091827 -1030.430031 1334.350204 60 55 52
1186.960506 -1030.424023 1334.123230 7 2 0
1189.675903 -1032.613564 1337.129974 51 46 43
1188.227367 -1031.526375 1335.291672 51 46 43
1188.227367 -1031.526375 1335.291672 51 46 43
1188.827991 -1031.965256 1336.115837 11 6 3
1188.552189 -1031.764603 1335.842133 56 51 48
1187.427235 -1030.917740 1334.524727 10 5 3
1190.775776 -1033.568954 1338.470650 65 60 59
1184.414768 -1028.313732 1332.102013 7 2 0
1189.890003 -1032.963467 1337.226486 62 57 54
1189.269447 -1032.497978 1336.550999 15 10 7
1187.061214 -1030.749798 1334.124756 54 49 46
1189.963818 -1033.150959 1337.297440 8 3 1
1186.159992 -1029.996872 1333.584595 48 43 40
1189.039421 -1032.470798 1336.134911 11 6 4
1188.540840 -1032.072926 1335.642910 56 51 48
1186.244965 -1030.189896 1333.396053 56 51 48
1189.978886 -1033.261681 1337.135601 21 16 13
1186.568928 -1030.475330 1333.636856 9 4 1
1189.651012 -1032.999420 1336.814308 13 8 5
1189.459229 -1032.888126 1336.518478 62 57 54
1190.206432 -1033.456898 1337.547493 52 47 44
1191.209888 -1034.222126 1338.909626 69 65 64
1190.025043 -1033.395481 1337.193775 63 58 55
1186.916637 -1030.917072 1333.918285 55 50 47
1187.098885 -1031.080151 1334.120178 52 47 44
1187.098885 -1031.080151 1334.120178 52 47 44
1186.568928 -1030.677414 1333.570004 46 41 38
1186.276150 -1030.456066 1333.322620 6 1 0
1188.007927 -1031.923771 1334.872627 63 58 55
1190.212727 -1033.718014 1337.297821 12 7 5
1190.407562 -1033.864117 1337.641048 60 55 52
984.280109 -750.252008 1755.074692 197 204 207
1190.089321 -1033.684540 1337.067223 13 8 5
1190.089321 -1033.684540 1337.067223 13 8 5
1188.553524 -1032.484818 1335.528564 11 6 3
1190.001202 -1033.751678 1336.914825 64 59 56
1187.992668 -1032.166004 1334.691811 50 45 42
1190.548134 -1034.124470 1337.774658 16 11 8
1190.421486 -1034.089470 1337.472153 72 67 64
1190.385818 -1034.143543 1337.134361 13 8 6
1187.685394 -1031.900883 1334.559441 58 53 50
1187.220955 -1031.569862 1334.181023 52 47 44
1187.220955 -1031.569862 1334.181023 52 47 44
1190.028763 -1033.944416 1336.784458 9 4 2
1190.571880 -1034.366322 1337.520790 18 13 10
1190.518570 -1034.505558 1337.248993 58 53 50
1187.385750 -1031.908607 1334.279156 7 2 0
1189.735222 -1033.994007 1336.359692 53 48 45
1189.115810 -1033.495903 1335.750771 6 1 0
1189.276600 -1033.625698 1335.943127 12 7 4
1187.242889 -1032.060146 1333.708763 54 49 46
1190.829659 -1034.940910 1337.601566 14 9 8
1190.098763 -1034.438324 1336.623478 12 7 5
1191.010284 -1035.066509 1338.011837 15 10 9
1188.357544 -1033.089066 1334.857845 8 3 1
1192.233562 -1036.085510 1339.737892 34 30 29
1188.418198 -1033.308506 1334.723091 49 44 41
1193.128872 -1038.083839 1339.302254 118 113 110
1190.439034 -1034.921741 1336.975384 13 8 5
1190.161991 -1034.695721 1336.653519 15 10 7
1189.832497 -1034.461117 1336.295414 58 53 50
1192.516994 -1036.430359 1339.922333 110 107 103
1190.571022 -1035.054016 1337.121391 12 7 4
1188.926029 -1033.857155 1335.281467 7 2 0
1187.959194 -1033.048248 1334.454441 6 1 0
1190.485668 -1035.139179 1336.871529 73 68 65
1190.350533 -1035.066223 1336.697865 11 6 3
1190.819454 -1035.441971 1337.269402 66 61 58
1187.013054 -1032.356453 1333.604813 6 1 0
1189.093304 -1034.091377 1335.391617 10 5 3
1189.471054 -1034.409809 1335.743904 9 4 2
1189.586449 -1034.474754 1335.950375 10 7 4
1188.279724 -1033.472157 1334.526157 9 4 2
1190.256596 -1035.087681 1336.554337 47 42 39
1188.950443 -1034.080791 1335.175419 47 42 39
1190.566826 -1035.381126 1336.901093 57 52 49
1190.566826 -1035.381126 1336.901093 57 52 49
1184.816647 -1030.615330 1331.888866 6 3 0
1189.430809 -1034.537220 1335.614872 73 68 65
1188.968754 -1034.116650 1335.332680 56 51 48
1191.783524 -1036.349392 1338.396740 21 16 13
1188.552189 -1033.884430 1334.789562 53 48 45
1188.406849 -1033.807182 1334.556389 47 42 39
1191.506958 -1036.257648 1337.964916 18 13 10
1189.156246 -1034.460163 1335.356712 7 2 0
1187.104607 -1032.839394 1333.426571 52 47 44
1190.544128 -1035.719585 1336.595345 9 4 2
1188.258839 -1033.922958 1334.297180 6 1 0
1185.591125 -1031.655979 1332.350826 56 51 48
1191.230392 -1036.292553 1337.413120 17 12 10
1188.350296 -1034.045696 1334.387112 66 61 58
1189.172459 -1034.665489 1335.289764 60 55 52
1191.649914 -1036.603642 1338.050556 23 18 15
1189.870071 -1035.253716 1335.982990 7 2 0
1189.439774 -1034.929466 1335.502911 54 49 46
1187.517262 -1033.379173 1333.849525 6 1 0
1190.193844 -1035.607719 1336.146450 73 68 65
1191.803169 -1036.816978 1338.174629 21 16 13
1191.803169 -1036.816978 1338.174629 21 16 13
1191.708660 -1036.800385 1337.900066 80 75 72
1190.672970 -1036.011219 1336.671925 60 55 52
1188.214970 -1034.111691 1334.112167 7 2 0
1190.197754 -1035.752392 1336.033440 10 5 3
1190.428829 -1035.943699 1336.301422 10 5 3
1191.100311 -1036.450577 1337.080669 10 6 5
1189.561081 -1035.279083 1335.595894 8 3 0
1188.860130 -1034.744358 1334.857464 7 2 0
1189.117622 -1034.998131 1334.944248 48 43 40
1188.682556 -1034.709072 1334.500122 5 2 0
1190.274525 -1035.976124 1336.077976 62 58 53
1190.274525 -1035.976124 1336.077976 62 58 53
1191.809654 -1037.164021 1337.767792 19 14 11
1189.932728 -1035.715961 1335.761738 11 6 4
1192.032623 -1037.382221 1338.045025 12 7 4
1188.367176 -1034.626293 1334.146404 8 3 1
1188.367176 -1034.626293 1334.146404 8 3 1
1188.453770 -1034.698677 1334.291363 8 3 1
1188.453770 -1034.698677 1334.291363 8 3 1
1193.148994 -1038.253021 1339.827347 47 43 41
1191.977978 -1037.488365 1337.903118 22 17 14
1188.478184 -1034.804726 1334.196949 57 52 49
1188.384628 -1034.759808 1334.100914 10 5 2
1190.373611 -1036.396980 1335.952187 9 4 1
1189.517975 -1035.789490 1335.006809 10 5 3
1191.379642 -1037.286949 1336.884403 13 8 5
1187.749004 -1034.366608 1333.612823 6 1 0
1191.736221 -1037.569427 1337.265110 53 48 47
1188.952827 -1035.414410 1334.511185 8 3 1
1191.607857 -1037.511158 1337.206841 15 10 9
1189.505768 -1035.874653 1335.079670 54 49 46
1190.066433 -1036.376667 1335.418606 7 2 1
1191.961861 -1037.917995 1337.528038 12 7 5
1188.457966 -1035.147572 1334.163570 7 2 0
1189.008904 -1035.665512 1334.445095 58 53 50
1192.127514 -1038.115406 1337.708378 60 55 54
1192.127514 -1038.115406 1337.708378 60 55 54
1191.387558 -1037.585735 1336.756039 62 59 55
1189.906311 -1036.447620 1335.215759 8 3 1
1190.719509 -1037.151623 1335.878563 12 7 4
1186.937046 -1034.066582 1332.884216 6 1 0
1192.004013 -1038.223171 1337.150383 23 18 15
1190.326118 -1036.945343 1335.382652 8 3 0
1191.891956 -1038.137531 1337.089157 16 11 8
1191.620255 -1037.972736 1336.736107 7 4 2
1192.034054 -1038.257217 1337.309551 75 70 67
1189.873886 -1036.625481 1335.022926 9 4 1
1189.873886 -1036.625481 1335.022926 9 4 1
1191.738701 -1038.119984 1336.974525 10 5 2
1191.556072 -1038.004112 1336.698437 12 9 5
1191.421604 -1037.968445 1336.534119 16 11 8
1193.315315 -1039.347744 1338.967323 116 112 109
1193.315315 -1039.347744 1338.967323 116 112 109
1190.140057 -1037.032509 1335.154915 9 4 3
1187.078667 -1034.504509 1332.879162 6 1 0
1193.264103 -1039.358807 1338.899040 27 24 20
1191.610909 -1038.223553 1336.593246 59 56 52
1191.473675 -1038.202667 1336.452866 54 51 47
1189.800835 -1036.944294 1334.738922 45 40 37
1188.983250 -1036.275959 1334.123230 53 48 45
1190.417957 -1037.497139 1335.155678 48 43 40
1190.947342 -1037.859821 1335.905647 8 3 1
944.185543 -745.184517 1754.950142 207 212 213
1189.273262 -1036.611843 1334.200954 41 36 33
1191.793346 -1038.726139 1336.529541 54 51 47
1191.793346 -1038.726139 1336.529541 54 51 47
1192.009926 -1038.940239 1336.755943 18 13 12
1191.730785 -1038.774395 1336.263752 8 4 1
1192.189884 -1039.174175 1336.999798 15 12 8
1188.586998 -1036.332321 1333.760452 41 36 33
1189.290619 -1037.029839 1334.050846 5 1 0
1191.460800 -1038.745689 1335.998631 9 4 2
1189.618397 -1037.294483 1334.400177 65 60 57
1191.332054 -1038.720798 1335.828876 11 6 3
1190.331936 -1037.957478 1334.904289 56 51 48
1192.110348 -1039.359188 1336.519909 9 4 1
1191.851044 -1039.187336 1336.288357 8 3 1
1191.535950 -1038.972473 1336.001587 55 50 47
1187.467384 -1035.717583 1332.781887 50 45 42
1192.380047 -1039.649391 1336.846352 7 4 1
1193.290806 -1040.335178 1337.990284 20 16 15
1191.737843 -1039.251328 1336.055183 10 5 2
1193.235016 -1040.363979 1337.798977 20 16 15
1190.024376 -1037.920475 1334.594059 6 1 0
1191.283512 -1038.964748 1335.498619 49 44 41
1189.835072 -1037.818050 1334.310818 6 1 0
1190.045166 -1038.098717 1334.425545 9 2 1
1191.356373 -1039.181042 1335.391998 7 2 1
1191.476727 -1039.313221 1335.566616 47 42 39
1191.837692 -1039.642143 1335.828972 44 39 36
1192.883015 -1040.411282 1337.006474 12 8 7
1191.439056 -1039.341259 1335.496902 7 2 0
1192.511272 -1040.165043 1336.622906 10 7 3
1189.656353 -1037.948990 1334.038353 44 39 36
1187.165451 -1035.930443 1332.413387 45 40 37
1190.324211 -1038.538170 1334.545994 7 2 1
1190.324211 -1038.538170 1334.545994 7 2 1
973.269653 -787.063694 1721.307182 202 206 211
1191.542530 -1039.525700 1335.516548 45 40 37
1190.609360 -1038.823223 1334.682465 56 51 48
1190.273857 -1038.578987 1334.417820 51 46 43
1191.377258 -1039.440441 1335.429573 54 49 46
1193.749237 -1041.185474 1338.143349 81 78 74
1193.498802 -1041.062355 1337.620640 15 11 10
1192.607689 -1040.438366 1336.524391 58 55 51
1193.971157 -1041.422939 1338.231564 98 95 91
1193.741512 -1041.217518 1338.067532 27 24 20
1189.210796 -1037.799263 1333.708000 40 37 33
1193.909740 -1041.430378 1338.145161 32 29 25
1190.960598 -1039.339352 1334.810448 6 1 0
1193.227196 -1041.101837 1337.084484 14 10 9
1193.441391 -1041.258526 1337.467766 26 22 21
1193.391132 -1041.297817 1337.219238 17 13 12
1190.114880 -1038.819504 1334.091568 40 35 32
1192.076969 -1040.434170 1335.593700 8 3 1
1191.160774 -1039.691544 1334.936619 7 2 0
1193.050194 -1041.176796 1336.605930 8 5 2
1186.970520 -1036.316776 1332.165337 42 37 34
1191.046810 -1039.665508 1334.783840 7 2 0
1191.046810 -1039.665508 1334.783840 7 2 0
1190.560722 -1039.286613 1334.379959 53 47 44
1190.472031 -1039.264107 1334.216404 47 42 39
1193.885994 -1041.829491 1337.627316 30 26 25
1189.333820 -1038.366699 1333.523083 43 40 36
1191.375160 -1040.026665 1334.907913 49 44 41
1191.682243 -1040.290546 1335.138702 7 2 0
1191.682243 -1040.290546 1335.138702 7 2 0
1188.265419 -1037.566280 1332.752705 62 57 54
1191.911030 -1040.503788 1335.302448 8 3 1
1186.570168 -1036.171341 1331.892776 43 38 35
1193.330574 -1041.561222 1336.823177 16 12 9
1188.409042 -1037.696362 1332.891083 47 44 40
1190.990639 -1039.831829 1334.639549 54 49 46
1192.651939 -1041.147900 1335.988808 46 43 39
1192.391968 -1041.009045 1335.688114 7 2 0
1191.769409 -1040.554333 1335.142612 45 42 38
1188.832092 -1038.270092 1333.176804 45 42 38
1191.410160 -1040.426159 1334.708309 6 1 0
1194.570827 -1042.740822 1338.118553 57 52 49
1194.414997 -1042.616272 1337.992191 114 109 106
1191.041660 -1040.160084 1334.414101 6 1 0
1194.320011 -1042.627239 1337.671661 31 27 23
1194.320011 -1042.627239 1337.671661 31 27 23
1190.107727 -1039.476681 1333.797169 48 44 41
1192.285252 -1041.245556 1335.305119 10 5 2
1194.251251 -1042.671490 1337.489700 29 26 22
1191.195202 -1040.365887 1334.584332 47 42 39
1192.894077 -1041.766834 1335.742283 8 3 1
1191.791058 -1040.900230 1334.892464 7 4 1
1191.909790 -1041.001797 1335.021019 9 4 2
1193.299580 -1042.061710 1336.290550 9 5 4
1192.150307 -1041.266346 1335.134983 53 48 45
1192.150307 -1041.266346 1335.134983 53 48 45
1192.382812 -1041.459656 1335.328579 47 42 39
1193.913651 -1042.588520 1336.932659 16 12 11
1190.007114 -1039.602566 1333.589077 37 34 30
1189.372635 -1039.122486 1333.101940 40 37 33
1191.311455 -1040.660286 1334.469891 55 50 47
1192.329597 -1041.541576 1335.146141 9 4 1
1194.309807 -1042.964554 1337.390137 28 25 21
1193.890190 -1042.733383 1336.637020 17 13 12
1192.612171 -1041.831970 1335.338306 62 57 54
1193.342781 -1042.418575 1335.917759 11 8 6
1190.894318 -1040.543175 1333.971786 43 38 35
1194.567204 -1043.280125 1337.490177 29 24 23
1194.716835 -1043.425083 1337.611580 38 33 32
1184.097195 -1035.035229 1330.426884 6 1 0
1192.843628 -1042.108822 1335.474968 56 51 48
1192.714214 -1042.040539 1335.368252 7 2 0
1193.175507 -1042.398262 1335.797977 9 5 4
1194.113445 -1043.110561 1336.729527 21 17 16
1191.424942 -1041.119480 1334.262085 47 42 39
1193.180180 -1042.486572 1335.636806 14 9 6
1191.918755 -1041.511154 1334.655952 7 2 0
1191.883755 -1041.512203 1334.539127 53 48 45
1194.780350 -1043.658161 1337.491417 90 85 82
1192.677307 -1042.195892 1335.184383 63 58 55
1192.957878 -1042.438793 1335.348034 11 6 4
1194.346619 -1043.453979 1336.830902 20 17 13
1190.479660 -1040.521240 1333.555031 36 33 29
1190.479660 -1040.521240 1333.555031 36 33 29
1192.399311 -1042.071915 1334.872532 8 3 1
1192.399311 -1042.071915 1334.872532 8 3 1
1192.379284 -1042.095947 1334.703159 10 5 3
1188.255787 -1038.783264 1332.306290 43 37 34
1194.400024 -1043.537045 1336.932850 19 15 14
1192.638588 -1042.285538 1335.030556 7 2 0
1193.814373 -1043.233109 1336.023140 18 14 13
1191.051292 -1041.138172 1333.838749 43 38 35
1192.346764 -1042.173862 1334.690189 56 52 49
1193.772697 -1043.283558 1335.872841 50 46 45
1193.025589 -1042.716503 1335.221291 7 2 0
1192.882061 -1042.644882 1335.096169 7 2 0
1194.215012 -1043.638515 1336.340809 15 11 10
1189.023876 -1039.629173 1332.582760 47 43 39
1193.790245 -1043.370342 1335.799885 17 13 12
1192.417622 -1042.310143 1334.745312 9 6 2
1189.795780 -1040.269089 1332.992840 42 39 35
1192.035007 -1042.034626 1334.471226 6 1 0
1194.725323 -1044.098854 1336.788750 29 25 24
1193.360806 -1043.146610 1335.364532 11 6 3
1193.892193 -1043.573093 1335.835075 54 50 49
1192.306423 -1042.421055 1334.401226 50 45 42
1194.110680 -1043.826771 1335.952568 14 10 9
1192.042542 -1042.276192 1334.190083 51 47 46
1194.252110 -1043.957233 1336.040688 9 5 3
1193.033504 -1043.064785 1334.892845 6 1 0
1194.951820 -1044.403076 1337.143803 72 69 65
1192.195892 -1042.447662 1334.290695 46 41 40
1194.701481 -1044.322968 1336.517239 19 15 14
1194.701481 -1044.322968 1336.517239 19 15 14
1194.053555 -1043.900013 1335.793304 11 7 6
1193.354797 -1043.400860 1335.125446 63 60 56
1193.354797 -1043.400860 1335.125446 63 60 56
1189.170456 -1040.153027 1332.534599 49 46 42
1193.622398 -1043.704510 1335.138702 45 42 38
1193.521690 -1043.573856 1335.313225 6 3 0
1193.401337 -1043.579769 1334.870815 8 3 0
1193.865585 -1043.909168 1335.467625 46 42 41
1194.733238 -1044.581127 1336.275005 63 59 58
1192.907238 -1043.266678 1334.566879 8 3 1
1192.907238 -1043.266678 1334.566879 8 3 1
1193.500805 -1043.699360 1335.110474 8 3 1
1194.090176 -1044.155693 1335.556221 7 3 2
1195.326996 -1045.077038 1336.849880 32 28 26
1193.119049 -1043.459129 1334.786034 8 4 3
1194.857693 -1044.757557 1336.321449 66 62 61
1191.034412 -1041.871643 1333.336926 42 38 35
1191.034412 -1041.871643 1333.336926 42 38 35
1193.944550 -1044.097996 1335.467339 13 9 8
1194.591713 -1044.614983 1335.944271 19 15 14
1193.072510 -1043.541718 1334.627247 6 1 0
1193.668175 -1044.037437 1335.013008 53 49 46
1194.842243 -1044.892120 1336.191177 19 15 14
1193.599319 -1044.020939 1334.898472 7 2 0
1193.083096 -1043.636703 1334.551716 46 41 38
1192.330933 -1043.074417 1334.068394 48 44 43
1190.228081 -1041.479778 1332.792854 44 41 37
1190.228081 -1041.479778 1332.792854 44 41 37
1188.616753 -1040.228653 1331.983471 39 36 32
1193.236351 -1043.856716 1334.633446 6 2 1
1193.116379 -1043.794823 1334.400654 53 50 46
1190.855026 -1042.064953 1333.054829 51 48 44
1195.278549 -1045.426750 1336.343098 25 21 20
1194.435406 -1044.859028 1335.422707 6 2 1
1193.237686 -1043.974495 1334.446335 6 3 0
1191.395187 -1042.545605 1333.327389 50 46 44
1192.495632 -1043.430805 1333.921528 49 45 42
1192.495632 -1043.430805 1333.921528 49 45 42
1193.543339 -1044.287014 1334.560680 50 45 44
1195.057678 -1045.406818 1335.863209 19 15 14
1194.035721 -1044.685650 1335.038662 6 3 0
1192.082500 -1043.216133 1333.576202 54 49 46
1193.464756 -1044.276237 1334.511566 6 2 1
1190.803909 -1042.217159 1332.968140 45 41 39
1195.326805 -1045.696259 1336.061764 64 60 59
1193.122387 -1044.064808 1334.275246 40 36 33
1195.484352 -1045.826340 1336.258888 20 16 15
1193.825817 -1044.708443 1334.655952 6 1 0
1190.175438 -1041.878796 1332.539845 5 2 0
1192.080879 -1043.492603 1333.464432 39 38 34
1194.908905 -1045.634937 1335.402489 54 50 49
1194.908905 -1045.634937 1335.402489 54 50 49
1195.489502 -1046.121788 1335.872078 17 13 12
1194.533539 -1045.453262 1334.933186 9 6 3
1194.229889 -1045.230865 1334.718895 54 49 46
1195.809174 -1046.359825 1336.244583 29 25 24
1194.966221 -1045.815182 1335.193729 14 10 9
1195.655346 -1046.321487 1335.988998 78 74 73
1195.656490 -1046.345234 1335.908222 19 15 14
1195.315266 -1046.105099 1335.568810 58 54 53
1195.081043 -1045.979881 1335.299301 7 3 2
1195.081043 -1045.979881 1335.299301 7 3 2
1193.483543 -1044.782639 1334.213448 5 2 1
1194.211960 -1045.368099 1334.539318 46 41 38
1194.604778 -1045.671082 1334.903908 10 6 4
1194.122887 -1045.322609 1334.495831 5 2 0
1194.122887 -1045.322609 1334.495831 5 2 0
1194.947720 -1045.982742 1334.993076 51 47 46
1191.204357 -1043.113041 1332.818604 42 40 36
1195.242023 -1046.306133 1335.202312 64 60 59
1192.605400 -1044.332600 1333.409691 5 4 0
1190.001869 -1042.291927 1332.254887 44 41 37
1194.939804 -1046.097851 1334.940529 18 14 13
1194.939804 -1046.097851 1334.940529 18 14 13
1193.304634 -1044.877911 1333.802509 51 48 44
1193.304634 -1044.877911 1333.802509 51 48 44
1193.603897 -1045.110703 1334.028053 7 2 0
1193.603897 -1045.110703 1334.028053 7 2 0
1191.169834 -1043.266106 1332.693005 38 33 32
1195.215607 -1046.341324 1335.122299 18 14 13
1194.577408 -1045.911789 1334.582138 9 6 2
1195.799732 -1046.833801 1335.583687 23 19 18
1194.348240 -1045.781136 1334.392452 5 2 0
1195.023632 -1046.336174 1334.812164 62 58 57
1190.752983 -1043.083286 1332.386303 41 37 33
1190.752983 -1043.083286 1332.386303 41 37 33
1194.857979 -1046.249390 1334.598064 6 3 0
1190.883064 -1043.224621 1332.536030 47 42 39
1190.883064 -1043.224621 1332.536030 47 42 39
1193.662548 -1045.367432 1333.941555 46 41 40
1193.662548 -1045.367432 1333.941555 46 41 40
1194.633770 -1046.114635 1334.521675 49 46 42
1194.176960 -1045.841789 1334.076405 7 2 0
1193.572330 -1045.411015 1333.721828 6 2 2
1194.795227 -1046.390438 1334.497547 6 3 0
1193.901539 -1045.744324 1333.862114 5 2 0
1188.688374 -1041.706467 1331.568718 51 48 44
1189.842224 -1042.685604 1331.963253 45 42 38
1194.910240 -1046.595860 1334.366798 54 51 47
1194.910240 -1046.595860 1334.366798 54 51 47
1195.628738 -1047.171688 1334.771156 9 5 4
1191.974735 -1044.367218 1332.925320 46 43 39
1195.278168 -1046.902847 1334.637451 9 6 2
1195.278168 -1046.902847 1334.637451 9 6 2
1191.236877 -1043.856239 1332.450581 50 45 42
1195.248795 -1046.933937 1334.520054 9 6 3
1196.260929 -1047.655010 1335.449600 25 21 20
1196.013260 -1047.517109 1335.131264 14 10 9
1189.951038 -1042.944717 1331.907272 45 42 38
1189.951038 -1042.944717 1331.907272 45 42 38
1189.171028 -1042.347431 1331.651688 41 38 34
1195.128536 -1046.973324 1334.233952 50 47 43
1195.066261 -1046.922302 1334.316826 8 5 2
1195.066261 -1046.922302 1334.316826 8 5 2
1210.696030 -1062.623978 1328.415012 234 239 238
1196.155643 -1047.754002 1335.016441 56 53 49
1195.203781 -1047.136974 1334.220219 8 5 2
1194.959545 -1046.988297 1334.087372 7 3 2
950.255489 -818.151569 1711.422539 154 165 169
950.255489 -818.151569 1711.422539 154 165 169
1194.867897 -1046.947861 1333.971691 6 3 1
1195.257282 -1047.389507 1334.119129 14 11 7
1194.399929 -1046.778965 1333.578682 5 1 1
1192.805767 -1045.616627 1332.778931 47 44 40
1190.439987 -1043.829060 1331.903553 50 47 43
1195.634747 -1047.806072 1334.144878 8 5 2
1196.797752 -1048.736668 1334.913731 20 16 15
1195.212936 -1047.616005 1333.790684 10 7 3
1195.867729 -1048.111343 1334.253025 10 6 5
1195.673561 -1048.014259 1334.001541 5 2 0
1195.511627 -1047.991657 1333.791351 8 5 2
1196.990490 -1049.112606 1334.743595 19 15 14
1196.240807 -1048.584461 1334.184456 9 5 4
809.154320 -715.042686 1793.521309 144 155 159
1196.291828 -1048.623085 1334.320831 14 10 9
1190.719795 -1044.471264 1331.825447 51 48 44
1196.728516 -1048.991299 1334.472275 18 15 14
1196.728516 -1048.991299 1334.472275 18 15 14
1196.655369 -1049.021912 1334.301090 14 10 9
1195.702744 -1048.350525 1333.676434 7 4 2
1195.594406 -1048.281765 1333.643436 52 49 45
1196.182060 -1048.728848 1333.911037 14 10 9
1190.516376 -1044.483948 1331.702614 36 32 31
1195.980549 -1048.617935 1333.745384 63 59 58
1191.983032 -1045.616150 1332.154369 8 4 3
1195.911121 -1048.586178 1333.696461 5 1 0
1193.192101 -1046.570969 1332.519150 42 39 35
1196.394253 -1049.015331 1333.901024 9 5 4
1196.959877 -1049.438572 1334.340668 16 14 13
1194.538689 -1047.717762 1332.910919 5 2 1
1190.845871 -1044.961929 1331.700134 52 49 45
1193.506908 -1046.972370 1332.568836 5 1 0
1191.856384 -1045.793533 1331.998920 45 41 40
1195.737743 -1048.717499 1333.351421 36 32 31
1190.572739 -1044.853878 1331.537914 6 3 0
1196.557045 -1049.360371 1333.700657 11 7 6
1189.999962 -1044.452286 1331.366825 47 44 40
1194.877911 -1048.128128 1332.940006 55 51 50
1195.011902 -1048.291588 1332.972050 60 56 55
1194.403934 -1047.871590 1332.646751 6 2 1
1196.056461 -1049.100304 1333.360767 46 42 41
1196.332073 -1049.307251 1333.511448 7 3 2
1196.480083 -1049.418068 1333.576965 11 7 6
1196.508217 -1049.436378 1333.644104 54 50 49
1196.508217 -1049.436378 1333.644104 54 50 49
1197.125340 -1049.910164 1333.937454 12 8 7
1195.755672 -1048.930168 1333.170319 9 5 4
1196.366310 -1049.438572 1333.304024 8 4 3
1196.554375 -1049.600792 1333.498192 52 48 47
1192.815876 -1046.837807 1332.181072 46 42 41
1196.205616 -1049.381733 1333.276844 60 56 55
1195.862961 -1049.146938 1333.109379 51 47 46
1195.778656 -1049.129391 1332.998753 8 4 3
1196.890736 -1049.958897 1333.434200 54 50 49
1190.662003 -1045.312691 1331.495857 50 47 43
1190.662003 -1045.312691 1331.495857 50 47 43
1191.624928 -1046.070862 1331.718159 47 43 42
1191.335678 -1045.897865 1331.652069 48 44 42
1197.227669 -1050.278568 1333.636570 66 62 61
1195.379257 -1048.963547 1332.760334 7 3 2
1194.468975 -1048.324680 1332.408905 47 43 42
1193.092632 -1047.360420 1331.985283 5 2 0
1196.591663 -1049.972057 1333.169556 52 48 47
1196.139431 -1049.642563 1332.948303 47 43 42
1195.341873 -1049.067783 1332.668591 7 3 2
1194.307423 -1048.322105 1332.345295 5 1 1
1195.177078 -1048.985481 1332.576942 55 51 50
1195.177078 -1048.985481 1332.576942 55 51 50
1195.177078 -1048.985481 1332.576942 55 51 50
1198.050117 -1051.102066 1333.779621 18 16 15
1197.251511 -1050.511074 1333.463001 55 51 50
1193.576431 -1047.825813 1332.078648 51 48 44
1197.505569 -1050.736046 1333.430672 16 12 11
1193.034077 -1047.433472 1331.952095 43 40 36
1195.546341 -1049.310970 1332.691479 6 2 2
1197.048664 -1050.454807 1333.205414 9 5 5
1194.029903 -1048.273563 1332.190704 46 42 41
1194.029903 -1048.273563 1332.190704 46 42 41
1197.714710 -1051.002312 1333.427238 10 6 5
1195.698833 -1049.539948 1332.562637 44 40 39
1193.642616 -1048.022938 1332.000732 51 48 44
1193.642616 -1048.022938 1332.000732 51 48 44
1196.321583 -1049.996185 1332.835674 44 40 39
1191.928387 -1046.773529 1331.560040 52 49 45
1192.145538 -1046.958447 1331.575489 6 3 0
1196.363354 -1050.103283 1332.756233 45 41 40
1198.580647 -1051.709080 1333.827877 23 21 20
1194.484711 -1048.796844 1332.108974 47 43 42
1178.598785 -1034.954166 1354.287624 177 178 176
1197.204590 -1050.875568 1332.891083 9 5 4
1196.771812 -1050.590992 1332.637882 47 43 42
1196.771812 -1050.590992 1332.637882 47 43 42
1196.347046 -1050.286388 1332.599735 42 38 37
1197.567558 -1051.232815 1332.967281 7 3 2
1196.259308 -1050.288200 1332.490063 55 51 50
1197.877789 -1051.452923 1333.129501 54 50 49
1197.877789 -1051.452923 1333.129501 54 50 49
1193.906498 -1048.684978 1331.844139 55 51 50
1194.535065 -1049.151897 1331.997204 7 3 2
1193.551350 -1048.529720 1331.663895 58 55 51
1195.592213 -1050.017166 1332.180214 52 48 47
1195.592213 -1050.017166 1332.180214 52 48 47
1196.823406 -1050.946045 1332.420349 6 2 1
1197.822189 -1051.674366 1332.816792 9 5 4
1197.822189 -1051.674366 1332.816792 9 5 4
1193.535995 -1048.630142 1331.639385 5 1 0
1191.663742 -1047.330093 1331.187725 50 46 45
1191.663742 -1047.330093 1331.187725 50 46 45
1197.020435 -1051.274490 1332.458973 6 4 3
1197.020435 -1051.274490 1332.458973 6 4 3
1198.338318 -1052.299595 1332.732201 18 14 13
1198.640347 -1052.577400 1332.736778 62 60 59
1198.640347 -1052.577400 1332.736778 62 60 59
1197.451496 -1051.753902 1332.334900 46 44 43
1191.927910 -1047.844696 1331.140423 43 39 38
1198.154640 -1052.327538 1332.451725 52 50 49
1197.094440 -1051.683903 1332.082272 48 46 45
774.470425 -740.530157 1774.192238 219 222 224
1194.488335 -1050.035095 1331.493664 6 2 1
1196.333027 -1051.355839 1331.839943 53 51 50
1190.955448 -1047.604942 1330.927753 9 5 4
1194.791794 -1050.306034 1331.530666 7 3 2
1193.898964 -1049.302101 1336.272430 162 171 174
1198.071098 -1052.819633 1331.911850 54 52 51
1195.171738 -1051.017094 1331.352615 50 48 47
1193.590355 -1050.406647 1330.968571 10 8 7
1194.215012 -1050.962353 1330.968571 49 47 46
818.122387 -843.552780 1691.359138 210 212 216
1187.345314 -1050.365162 1331.992054 163 172 175
870.760918 -905.027866 1580.654430 211 215 216
838.973904 -889.285469 1703.918076 155 162 165
1209.683037 -1064.552116 1333.020020 161 169 172
1211.925125 -1066.974545 1329.575253 188 193 192
1211.498547 -1066.078091 1331.621456 236 236 236
1212.373734 -1067.529583 1328.916645 195 198 196
1214.723873 -1072.307587 1327.324390 236 236 236
1212.687302 -1067.861843 1328.444481 247 246 242
1218.288231 -1081.363201 1322.677612 238 242 243
1215.834045 -1074.238110 1325.789452 236 236 236
1214.439964 -1069.813156 1330.034447 119 129 136
1213.083744 -1068.051434 1327.661514 153 171 179
1213.083744 -1068.051434 1327.661514 153 171 179
1213.171482 -1068.158245 1327.567005 237 235 232
1213.825512 -1069.520378 1328.336525 214 208 203
1213.238430 -1068.232822 1327.498436 182 186 185
1213.337898 -1068.301773 1327.347183 252 249 245
1214.210987 -1069.881439 1327.970600 66 66 66
1213.762379 -1068.747616 1326.914978 233 236 235
1213.875103 -1068.818188 1326.761723 176 188 192
1203.450584 -1051.194096 1336.388493 101 95 90
1214.084721 -1069.006634 1326.545048 219 224 225
1214.432526 -1069.345665 1326.279354 230 234 235
1212.001228 -1066.554832 1331.033707 116 125 129
1214.530945 -1069.451237 1326.209927 177 185 185
1214.530945 -1069.451237 1326.209927 177 185 185
1224.770260 -1088.778305 1326.361752 88 83 80
1216.139793 -1071.915436 1331.075954 57 51 46
1216.318130 -1071.387577 1326.170921 221 224 225
1206.357670 -1057.792664 1334.991741 48 42 37
1206.798267 -1058.421040 1334.734726 97 91 86
1246.981716 -1124.651527 1312.448502 102 95 92
1249.779320 -1127.705669 1313.102627 91 87 82
1219.756508 -1075.949287 1327.820015 36 30 25
1255.402756 -1135.725689 1310.206985 84 80 75
1245.624638 -1119.914722 1318.511486 84 80 76
1242.269325 -1114.433765 1320.745564 38 33 30
1222.289371 -1079.144859 1327.894592 58 52 47
1256.693172 -1136.034107 1313.037014 95 88 85
1263.799953 -1146.872711 1307.147980 51 44 41
1263.799953 -1146.872711 1307.147980 51 44 41
1272.257900 -1156.734562 1306.789303 96 90 85
1263.898087 -1144.177055 1312.934971 76 72 67
1272.962475 -1157.458019 1306.278324 35 29 24
1277.405453 -1163.972092 1302.897072 39 33 28
1264.258385 -1144.411564 1313.207436 39 35 30
1264.258385 -1144.411564 1313.207436 39 35 30
1280.226421 -1167.843533 1300.991631 98 91 87
1282.233524 -1170.303154 1299.938679 46 40 35
1261.570740 -1139.550209 1316.592407 35 31 26
1280.741978 -1166.981983 1304.066944 38 32 27
1268.920040 -1149.501705 1313.843918 74 70 65
1288.433361 -1177.190781 1299.122524 35 29 24
1280.164814 -1165.429592 1306.141281 35 29 24
1274.137592 -1156.258106 1311.522770 34 30 25
1276.094532 -1159.058285 1310.129642 34 28 23
1298.346233 -1189.508724 1294.315147 79 73 68
1275.834942 -1157.790661 1312.168598 70 64 59
1287.792110 -1173.714447 1305.632591 33 27 22
1272.314453 -1151.989269 1315.659237 31 27 22
1273.891830 -1154.109573 1315.007496 66 62 57
1289.686203 -1175.929928 1305.316067 72 66 61
1273.785305 -1153.504753 1315.495872 74 70 65
1290.094948 -1175.650406 1306.417751 77 71 66
1290.094948 -1175.650406 1306.417751 77 71 66
1296.641445 -1184.635067 1301.946163 73 67 62
1299.724674 -1188.543701 1300.532913 36 30 25
1281.408024 -1162.481880 1314.020634 25 19 14
1281.408024 -1162.481880 1314.020634 25 19 14
1288.434219 -1171.922207 1310.423279 29 23 18
1291.932392 -1176.371479 1308.764935 27 21 16
1304.498386 -1193.074512 1300.391483 29 23 18
1290.122414 -1173.635960 1310.477448 29 23 18
1320.878887 -1214.385605 1285.387611 31 25 20
1294.939995 -1179.943562 1307.857037 72 66 61
1322.513294 -1216.078091 1285.918427 30 24 19
1311.067963 -1201.187515 1297.096920 85 79 74
1292.815304 -1176.279449 1310.270023 27 21 16
1310.468578 -1199.646568 1298.537922 67 61 56
1330.361938 -1223.662472 1277.744961 90 84 79
1292.728996 -1175.185871 1312.214184 25 19 14
1311.401081 -1199.813271 1300.547504 32 26 21
1315.668488 -1205.300999 1297.238827 68 62 57
1291.217041 -1172.805309 1313.649750 65 59 54
1315.844345 -1204.640293 1298.842812 27 21 16
1329.413414 -1221.327114 1288.837528 75 69 64
1324.076843 -1214.526367 1294.588566 31 25 20
1319.600773 -1208.160019 1297.933006 28 22 17
1319.600773 -1208.160019 1297.933006 28 22 17
1331.629276 -1223.189449 1288.522625 66 60 55
1321.644783 -1210.459900 1298.052692 26 20 15
1335.224056 -1227.329254 1286.233616 72 66 61
1325.064373 -1214.624405 1296.514130 66 60 55
1334.327507 -1225.760174 1288.280296 26 20 15
1331.335831 -1221.809769 1292.020035 64 58 53
1341.749096 -1233.979416 1281.042290 35 29 24
1344.496632 -1237.130070 1279.519844 88 82 77
1335.319424 -1225.614071 1291.092396 63 57 52
1331.351280 -1220.580959 1294.597721 20 14 9
1333.285713 -1222.748852 1293.253422 26 20 15
1345.774746 -1237.351322 1279.100227 74 68 63
1348.163319 -1239.597607 1277.604580 77 71 66
1317.242908 -1201.801300 1306.421566 24 18 13
1342.531490 -1233.163357 1287.969398 26 20 15
1349.857807 -1240.689564 1280.624294 84 78 73
1338.468552 -1227.082634 1293.447208 69 63 58
1352.361393 -1243.137741 1277.403545 29 23 18
1351.832581 -1242.357349 1277.059364 90 84 79
1346.169090 -1235.779190 1287.051582 77 71 66
1306.804371 -1187.084961 1314.730263 26 20 15
1345.038128 -1234.291458 1290.015793 22 16 11
1353.718567 -1243.525505 1274.605370 86 80 75
1346.397972 -1232.336712 1267.586327 119 113 108
1351.852989 -1239.243031 1269.230652 37 31 26
1354.775238 -1244.351768 1280.899429 90 84 79
1339.542866 -1226.354790 1296.866608 69 63 58
1348.770332 -1237.122536 1289.295292 61 55 50
1354.349327 -1243.478966 1283.382988 27 21 16
1347.191620 -1234.956837 1291.086292 64 58 53
