ply
            format ascii 1.0
            element vertex 10029
            property float x
            property float y
            property float z
            property uchar blue
            property uchar green
            property uchar red
            end_header
314.726138 -966.056824 2131.963539 176 168 138
305.531669 -900.337315 2252.061844 45 43 33
317.203498 -886.647511 2287.196732 95 62 41
317.203498 -886.647511 2287.196732 95 62 41
1149.514961 -657.566500 873.925018 183 184 182
2.983712 -1184.287548 2544.343758 75 59 61
1312.291431 -590.193987 818.229580 173 181 182
1068.436527 -701.807356 988.330173 89 117 137
388.958144 -861.715221 2324.637413 90 66 61
388.958144 -861.715221 2324.637413 90 66 61
1150.472927 -647.842884 901.034069 101 112 119
505.911541 -870.337200 2064.460945 91 61 50
512.624168 -872.766590 2049.439430 96 116 129
1311.389256 -622.540331 838.969231 30 28 20
1311.389256 -622.540331 838.969231 30 28 20
328.038454 -943.690681 2328.668404 67 57 60
328.038454 -943.690681 2328.668404 67 57 60
1159.282780 -650.648546 896.477890 101 112 119
719.662189 -796.949244 1771.956635 71 60 62
1146.403313 -668.707180 904.875469 152 171 174
-3908.427429 -88.305593 1629.332161 93 96 94
-3885.823059 -121.575701 1690.945816 156 159 157
-3317.145157 -71.438080 1658.383179 202 168 109
-3914.093018 -159.534013 1727.898788 136 141 140
-3389.580536 -102.977908 1697.660255 211 175 115
-3570.519638 -156.722474 1720.065498 69 73 69
-3470.063400 -117.481589 1728.239441 207 171 113
-3497.658539 -163.444507 1716.216660 237 220 180
-3521.068573 -144.723022 1727.635574 172 151 111
-3555.821228 -148.109078 1741.963768 236 214 179
1534.365463 -819.773006 836.006355 170 179 182
3758.681488 -1037.521362 396.015406 48 61 63
-3985.131073 225.864387 2096.326065 91 140 172
-4194.271088 -270.162392 1979.951286 51 59 59
-3477.505493 36.994031 1996.871948 234 235 231
-4219.169998 -242.067695 2050.675201 139 148 151
1659.461975 -938.611031 639.194441 168 177 180
-4113.100052 -36.392570 2130.269051 167 186 193
-4169.123459 -276.287031 2051.060104 70 80 80
-2951.857758 -6.768400 2012.761879 81 95 100
-4712.129593 -269.264245 2301.569748 125 140 143
-2968.906975 -37.341276 2047.117615 59 84 92
-2838.937378 -285.301828 1912.936020 107 123 123
-2226.787949 -229.350853 1811.537170 69 74 72
-358.875418 111.360085 1577.658081 39 38 34
-4546.023941 -303.281951 2301.117516 86 104 108
-2885.559464 -307.977104 1935.203552 86 94 88
-4556.829071 -31.643027 2499.864769 153 181 188
-471.872711 59.959638 1621.091270 18 19 16
-2973.556709 655.247593 2518.667030 107 126 131
-991.123581 186.767328 1835.251045 47 49 44
1572.132015 -815.277195 818.589592 206 218 220
10116.087341 -2411.366653 -1835.271454 48 61 63
1998.198700 -746.028709 632.131958 189 172 122
-4638.719940 -429.480743 2502.920723 91 109 116
-950.314713 127.875030 1845.865822 53 54 50
-802.464485 46.095240 1805.313873 12 15 12
-804.956913 41.354105 1810.103798 30 33 29
522.738123 352.076340 1707.936478 170 158 123
-4745.646286 -548.175478 2628.705978 209 218 225
-2199.471855 -603.690243 1886.657143 148 166 173
-710.855532 -9.790431 1777.915001 212 213 209
315.558672 404.984236 1708.131409 204 188 141
316.915774 405.934191 1711.034203 152 136 89
316.915774 405.934191 1711.034203 152 136 89
338.132954 414.153624 1709.831238 166 150 105
338.132954 414.153624 1709.831238 166 150 105
-4677.525330 -573.270464 2628.103447 173 187 193
345.925188 412.768126 1708.395767 161 146 102
-662.974548 -29.845637 1760.471344 212 213 209
-451.446629 226.148033 1840.222168 221 229 225
-449.858809 225.321293 1839.597702 221 229 225
-453.847504 234.788942 1852.931404 207 217 217
1293.057537 -561.696720 1075.488853 115 122 125
-457.278109 264.040494 1895.042610 224 231 232
187.645960 -663.281298 1204.669857 197 162 105
378.135681 370.600224 1725.826263 169 150 99
-2925.673103 -581.451845 2237.597847 63 70 74
-2919.098282 -575.313091 2242.791367 88 101 103
-2930.025101 -564.577389 2255.350113 56 73 76
-2930.025101 -564.577389 2255.350113 56 73 76
-2919.211006 -561.914110 2264.688110 120 142 149
431.592607 371.992970 1730.772972 163 146 97
456.362629 362.969804 1734.416199 205 188 139
156.313252 296.245790 1800.630951 152 132 74
462.383795 360.117245 1734.374809 157 140 91
-4703.615189 -514.336634 2990.446091 153 175 181
383.285713 1417.335224 2398.101616 111 117 122
3762.342072 -679.666471 -15.922853 115 131 130
369.659162 311.545277 1763.321495 132 112 55
159.777248 277.128172 1823.421097 207 187 129
-3017.837715 -704.658842 2409.651566 167 147 155
516.790056 337.758923 1748.228645 168 149 98
-2995.664597 -712.562132 2409.213066 116 106 114
1858.783150 -857.799721 554.352951 211 222 225
546.059322 351.820087 1747.964096 212 197 151
1646.260262 -827.961254 773.835802 228 236 236
554.036665 353.424740 1747.971916 149 135 92
557.986736 350.673199 1751.055145 146 130 87
581.295776 342.962909 1756.633568 222 207 162
579.258776 341.369748 1757.166672 152 136 92
552.546835 321.375108 1757.977486 156 139 90
523.181581 305.683017 1765.075874 147 128 76
590.696764 345.477414 1763.457489 140 126 84
591.496277 344.385505 1762.795067 140 126 84
-2659.617805 -764.912558 2348.514938 170 142 152
591.211987 336.212921 1761.752701 150 134 88
577.361250 317.220187 1764.336205 159 141 90
478.500986 279.206491 1784.573174 134 114 59
33.257759 211.173558 1924.596786 153 133 75
357.848334 255.215144 1823.022270 144 124 66
-3512.691116 -819.941616 2713.442993 190 151 161
351.656771 1325.409317 2513.927269 122 129 132
-596.527338 -215.592766 1934.893990 61 69 70
548.530626 532.258368 1941.973686 171 172 170
550.195217 529.730320 1940.323067 171 172 170
609.580278 314.180446 1774.258232 160 142 95
608.745623 310.661578 1773.944664 203 184 136
1806.954956 -899.915028 613.955975 53 45 28
547.796822 539.621925 1952.987099 54 51 39
1034.284210 -728.202200 1063.219929 107 126 131
615.067339 304.281259 1776.516914 224 204 156
612.552881 303.468919 1777.812004 159 140 90
612.552881 303.468919 1777.812004 159 140 90
959.052277 -710.504913 1094.976902 107 126 131
336.517811 1309.008980 2552.664375 126 133 136
336.517811 1309.008980 2552.664375 126 133 136
636.840963 311.423707 1784.971237 136 121 75
422.709370 236.875367 1834.457970 141 122 65
629.426336 299.975610 1786.617661 160 143 92
176.480341 201.766133 1926.864624 136 117 56
176.480341 201.766133 1926.864624 136 117 56
-3093.970871 -893.689632 2658.349228 205 156 164
-3093.970871 -893.689632 2658.349228 205 156 164
210.823393 194.003010 1932.618523 129 110 49
669.011259 308.701754 1806.007767 124 110 68
447.175264 217.535186 1850.276947 143 124 67
408.619213 207.587075 1866.909409 140 122 63
660.807800 283.910584 1807.505989 149 132 81
640.127468 263.801241 1804.746628 208 188 133
307.175136 185.309851 1923.342514 137 118 57
-5264.527130 -1120.113182 3689.818192 168 134 141
-5095.108414 -823.682404 3812.066650 65 75 75
676.926851 271.005726 1816.086197 180 163 114
-3983.424377 -1061.622906 3170.187759 121 97 102
674.456406 264.555335 1825.317955 142 125 74
678.606939 262.325406 1826.008606 193 176 125
678.606939 262.325406 1826.008606 193 176 125
488.512611 187.886369 1875.666237 150 131 74
218.688345 152.945960 1985.189819 134 114 56
-3169.866562 -1032.938099 2846.678543 121 97 102
395.334768 172.889686 1917.435074 135 117 58
493.838263 184.451723 1877.191544 120 101 44
685.571527 256.977129 1833.982086 124 109 60
888.505459 -569.252348 1216.327953 35 33 22
-2729.650116 -925.638962 2728.977394 46 58 54
496.987009 181.338036 1879.971695 138 119 62
539.697361 189.670515 1866.949654 157 138 81
684.961748 249.868751 1840.738869 136 121 71
689.091635 251.658750 1841.593170 128 113 64
-2719.461632 -944.732666 2742.470360 42 50 44
-3766.228104 -437.449360 3640.748215 39 37 26
690.437317 242.434835 1845.840073 125 110 61
-3778.295135 2508.384323 5799.964523 134 116 57
298.741293 1152.538872 2699.050903 100 105 106
697.533989 249.160671 1849.670410 116 100 57
697.533989 249.160671 1849.670410 116 100 57
704.456472 257.559443 1852.065277 91 77 35
190.743935 127.278936 2026.505852 138 120 61
190.743935 127.278936 2026.505852 138 120 61
701.078129 249.499130 1850.388336 170 154 111
703.408384 255.683851 1857.374573 153 138 96
703.408384 255.683851 1857.374573 153 138 96
702.160692 251.243114 1856.601524 169 153 110
484.696388 1023.885155 2530.673790 155 162 165
484.696388 1023.885155 2530.673790 155 162 165
688.671064 231.088018 1853.024292 135 118 69
688.671064 231.088018 1853.024292 135 118 69
690.788603 228.820395 1856.618500 112 97 48
703.188705 240.348673 1861.446762 105 89 46
583.870792 174.777937 1880.990410 147 128 71
700.033140 231.480050 1861.549568 173 157 110
-5147.171021 -1103.754902 4048.115540 145 153 152
-5151.586151 -1031.738758 4116.362381 139 146 143
-5065.756989 -1026.540661 4079.061127 139 146 143
702.967787 228.178024 1875.286674 150 136 94
705.638981 229.996848 1880.140686 97 85 45
694.739103 211.153007 1874.067116 113 97 50
694.739103 211.153007 1874.067116 113 97 50
696.801996 209.713292 1878.252029 102 89 41
614.306736 164.643359 1895.139122 151 132 75
614.993382 162.412131 1897.033882 152 133 76
702.123356 209.629345 1885.843277 114 98 56
712.453651 220.115638 1898.953247 149 137 104
633.274317 1154.899788 2654.151917 108 114 121
1126.128578 -703.813362 1077.748680 224 231 232
1126.128578 -703.813362 1077.748680 224 231 232
674.296856 -99.839282 1706.057739 163 145 87
676.297426 -102.218974 1703.980255 163 145 87
698.162985 184.256887 1920.654869 167 154 110
-385.794401 -483.183098 2063.247490 161 148 102
609.577084 127.337921 1935.871315 136 119 63
699.137688 178.822780 1928.468323 141 129 89
692.279959 165.592945 1924.915123 102 89 45
699.993706 169.821990 1934.979820 69 58 19
718.159962 1081.828785 2646.054268 150 153 158
-341.886568 -474.832535 2080.429077 112 99 53
1537.232685 -877.888107 779.734087 69 62 37
639.643240 1045.551491 2674.894142 156 163 168
-305.055523 -373.928642 2153.420067 112 101 57
686.051750 147.984564 1946.270561 149 135 93
625.957394 113.821912 1959.498215 127 111 58
-323.746467 -523.506689 2060.641861 180 166 118
700.349665 162.263453 1957.030869 66 56 22
669.024467 956.594944 2618.815041 166 171 175
677.580786 137.272310 1953.268433 97 83 40
683.154488 141.446579 1956.124687 102 88 46
683.154488 141.446579 1956.124687 102 88 46
1188.841629 -483.516788 1169.740200 235 241 238
691.143274 142.825341 1957.746124 79 69 29
697.356892 151.294148 1964.736176 128 119 84
695.522404 145.867252 1966.166306 136 125 88
673.041248 126.334333 1967.980576 89 76 31
683.681297 131.849074 1972.164536 76 65 26
639.120770 102.933621 1980.309296 119 105 53
-239.407873 -352.392364 2204.902649 108 97 53
-350.047159 -729.347849 1972.918510 176 162 113
-350.047159 -729.347849 1972.918510 176 162 113
5767.253876 -4316.583252 -5151.670456 234 240 235
691.931629 132.110369 1986.024475 61 50 19
686.708927 127.416122 1986.251640 127 116 81
679.528570 118.117940 1987.927628 143 133 93
672.685146 113.575196 1992.229652 164 152 108
680.148077 116.179144 1990.374374 73 63 23
689.153862 124.579716 1992.111778 66 56 23
-280.862617 2.298470 2576.254654 230 235 236
-254.538393 -536.516190 2098.692703 95 84 34
683.731604 115.963256 1998.781967 84 73 36
683.731604 115.963256 1998.781967 84 73 36
-286.315346 -654.644394 2022.133255 109 96 46
682.619572 113.342190 2006.517220 136 124 90
-322.440434 -763.759708 1966.802979 119 104 55
-227.215981 -466.005611 2153.845024 105 93 45
-277.092934 -658.764648 2028.118896 101 87 38
658.116579 92.606676 2010.543823 87 78 34
-269.970059 -650.755119 2035.400963 116 102 53
-306.862116 -748.064899 1978.873253 117 102 53
686.919832 112.747693 2017.465973 54 45 17
-248.296452 -608.446836 2067.648697 99 85 36
-261.603165 -658.421135 2037.151337 101 86 37
-227.773690 -542.350578 2113.820267 98 84 35
677.893734 102.810740 2021.549225 53 43 10
-309.641719 -791.112471 1961.433983 112 97 48
-225.541544 -567.243195 2108.672523 98 83 34
-248.069286 -667.130518 2047.318268 114 99 50
-204.027033 -517.394018 2146.781921 107 93 44
-250.308347 -693.179178 2038.187981 95 80 31
-198.927426 -527.388763 2151.386452 102 88 39
-220.807385 -619.606161 2088.787651 93 78 29
563.629055 -110.682809 1950.442505 102 88 69
-217.492342 -624.142933 2090.583038 103 88 39
-210.914111 -607.424021 2101.033020 105 91 39
-214.340925 -629.666519 2088.706779 107 92 43
567.777538 -129.960871 1945.373344 61 49 31
-236.927748 -711.457253 2041.476631 105 90 41
-54.563689 -683.644533 1935.302925 114 99 50
-187.347400 -563.608503 2146.049309 104 89 40
-199.951005 -607.114077 2119.673729 119 105 56
-264.516211 -822.228622 1979.695702 116 102 60
-264.516211 -822.228622 1979.695702 116 102 60
-237.356377 -753.971529 2021.431923 106 91 42
-172.159827 -532.600927 2171.453285 93 79 30
-214.108920 -685.418844 2066.904259 113 98 49
-247.302508 -788.551807 2000.115585 82 67 19
-106.244922 -312.363505 2324.106216 115 102 56
-269.698620 -855.352688 1960.070992 118 103 57
-236.066198 -761.267519 2019.902229 118 103 54
-250.185847 -808.750820 1988.186264 106 92 43
1213.162231 -726.506376 1040.179157 197 162 105
1213.162231 -726.506376 1040.179157 197 162 105
-102.839363 -318.674827 2324.100685 117 104 58
-102.839363 -318.674827 2324.100685 117 104 58
-206.149840 -678.173208 2079.055786 106 91 42
-206.149840 -678.173208 2079.055786 106 91 42
-216.493869 -732.269478 2043.568993 110 95 46
-179.184651 -619.913960 2123.043060 97 83 31
-179.184651 -619.913960 2123.043060 97 83 31
-145.080030 -539.090443 2180.857849 114 99 50
-243.117857 -852.034760 1971.816826 108 93 47
-211.863184 -766.449404 2030.346298 108 93 44
-148.460519 -581.608486 2153.729630 111 96 47
529.816055 -153.868294 2007.268143 78 68 51
-215.580654 -795.485544 2014.797974 100 85 36
-204.134393 -765.669012 2033.633614 109 94 45
-205.505395 -771.284342 2030.365562 99 84 35
575.697756 -158.837819 1973.577690 232 225 210
-171.419716 -694.968319 2086.309052 99 84 35
-171.419716 -694.968319 2086.309052 99 84 35
-155.239367 -646.554232 2118.593216 116 102 50
-329.766798 -1020.312309 1913.823318 232 218 175
-73.622221 -400.773382 2284.569168 179 167 119
-144.176912 -625.296164 2135.262489 100 85 36
646.071720 -203.027105 1887.028503 125 118 99
-148.158574 -649.426746 2120.437241 101 87 35
-82.145554 -75.446081 2607.246208 42 45 43
555.573082 -15.714628 2144.872093 110 92 33
555.573082 -15.714628 2144.872093 110 92 33
-262.127495 -19.458751 2808.689499 248 251 249
-271.779752 -999.772739 1911.168671 205 188 137
-148.588145 -703.493786 2090.040779 104 90 38
-234.433603 -946.436691 1931.895065 111 97 49
-234.433603 -946.436691 1931.895065 111 97 49
-186.593616 -822.005463 2012.910271 181 166 117
-147.400415 -709.151077 2087.505722 100 86 34
-12.665088 -134.347439 2529.629898 36 36 25
-181.120300 -826.607037 2011.522484 125 110 61
-214.932847 -921.176338 1950.758362 106 91 45
-55.847502 -459.714937 2258.460426 112 98 49
627.257490 17.153591 2142.794228 64 52 15
-201.183486 -893.424225 1968.929672 111 96 50
-66.259122 -502.878428 2228.836441 108 94 45
-80.919957 -543.644428 2202.946091 109 94 45
-12.823151 -145.289445 2529.236031 38 40 31
171.121240 -144.268632 2369.514847 156 147 110
171.121240 -144.268632 2369.514847 156 147 110
170.935655 -178.491652 2345.656776 64 60 46
606.446075 1.532167 2151.753044 145 130 84
-142.597699 -737.277889 2076.155090 112 97 48
582.626390 -14.036056 2157.330894 113 95 42
582.626390 -14.036056 2157.330894 113 95 42
599.004555 -5.989439 2151.795769 107 91 44
599.004555 -5.989439 2151.795769 107 91 44
-72.518742 -549.231339 2201.229858 102 87 38
54.070342 -183.356917 2453.193283 38 40 31
387.539649 -128.629553 2213.786125 88 78 61
-45.390940 332.542467 3012.381935 118 104 51
624.036074 7.905068 2150.991631 65 53 16
-267.377067 -1031.835651 1909.775734 158 140 87
624.388742 11.232091 2155.458069 105 93 57
624.388742 11.232091 2155.458069 105 93 57
-118.778360 -695.838833 2106.730270 99 85 33
12.232976 -339.804053 2344.461250 105 92 46
-82.638365 -612.138319 2164.832115 114 100 48
-37.798265 -483.827972 2251.206207 173 159 110
-37.798265 -483.827972 2251.206207 173 159 110
-62.683231 -558.697462 2201.026726 102 87 38
-160.791028 -830.923367 2022.935104 107 92 43
-72.548723 -590.271139 2180.671692 105 91 39
521.156549 -47.769970 2198.834610 105 87 28
577.757359 -21.007882 2177.283669 111 94 43
577.757359 -21.007882 2177.283669 111 94 43
-157.235050 -841.135120 2016.018295 124 109 60
-35.455599 -513.078785 2229.826355 107 93 41
608.272982 -3.225354 2170.817375 76 61 23
-105.087399 -697.187996 2111.730576 104 90 38
-42.664659 -198.135567 2546.729469 33 33 24
-239.898062 -1023.407269 1914.086533 214 197 146
7.020366 -394.408607 2312.111855 103 89 41
-178.894758 -906.228447 1979.096222 108 94 46
-49.899626 -213.660407 2547.639847 64 69 65
-83.600050 -660.286760 2138.900185 106 92 40
-62.158108 -230.868220 2544.787025 238 241 231
-96.206975 -698.170328 2116.014862 97 83 31
-96.206975 -698.170328 2116.014862 97 83 31
615.387726 -0.124537 2181.702805 51 41 8
-107.684970 -741.545582 2087.511253 106 92 40
-91.226441 -704.824305 2110.731506 116 102 50
-91.226441 -704.824305 2110.731506 116 102 50
762.817049 -27.923706 2028.941154 30 23 8
760.487604 15.942769 2074.069977 24 20 11
1385.954094 -740.644598 975.915146 69 73 69
-149.152887 -874.083519 2003.745079 113 98 49
-50.554806 -606.923819 2181.640625 95 81 29
-49.872753 -613.177824 2175.173950 117 103 51
-154.523253 -890.568638 1995.244026 102 88 40
-41.920957 -600.682974 2183.078003 105 91 39
30.187601 -410.672045 2306.826401 106 92 43
-103.088081 -759.354496 2080.801392 189 175 123
-135.858440 -860.651970 2015.712929 111 96 47
-104.409778 -788.511753 2060.968208 112 97 48
-3.016977 -516.469765 2241.072845 103 89 37
-53.253317 -648.097897 2155.546379 101 87 35
-29.693809 -620.523977 2174.968529 99 85 33
479.810095 -80.053210 2260.743523 199 183 124
-131.439674 -899.785900 1998.924637 96 82 34
28.401515 -500.762701 2256.430817 91 77 25
71.999240 -405.562353 2317.700386 100 85 36
-37.924331 -678.442144 2143.857765 108 94 42
-2.006163 -595.931768 2198.771095 103 89 37
-30.902380 -671.787357 2149.023056 105 89 38
430.862379 739.626932 3152.472305 88 92 91
31.411079 -518.564701 2249.210358 88 74 22
587.961960 -33.677176 2236.290359 69 58 26
-131.399977 -941.579914 1977.768135 99 84 38
-138.837564 -964.570618 1961.602402 112 99 53
-124.198461 -927.985096 1986.487198 108 93 47
-12.755485 -658.992052 2158.524895 178 164 112
526.886082 -70.439512 2259.533882 100 85 34
-96.941245 -863.129902 2031.256485 96 81 32
-179.667211 -1046.946430 1922.386360 217 200 151
21.472827 -588.640594 2208.637047 100 86 34
1038.105488 -469.713831 1385.241795 193 179 126
-127.362430 -966.017342 1967.129326 100 87 41
-11.228681 -678.350592 2153.633308 110 93 42
27.679703 -589.775896 2209.019279 162 148 96
-37.142348 -749.432087 2108.464050 109 92 41
-79.096252 -876.684284 2026.558304 106 91 42
385.161424 592.685509 3099.284554 66 63 59
0.880679 -682.503605 2155.415726 180 163 112
1050.413036 -595.786858 1252.980518 175 162 119
-63.392091 -841.507912 2053.182793 101 86 37
45.466369 -588.883400 2212.984085 108 94 42
45.466369 -588.883400 2212.984085 108 94 42
15.813649 -660.702515 2167.631531 95 78 27
-74.503642 -879.292774 2028.917313 113 98 49
21.797998 -652.541876 2176.033020 108 94 42
-38.197339 -805.175018 2075.850487 105 90 39
59.237146 -567.390060 2232.045364 108 94 42
-111.598659 -988.761902 1957.845879 120 107 62
-341.920304 -1125.886822 2035.693932 163 146 95
36.884758 -631.982422 2188.132286 171 157 105
60.309231 -583.521509 2218.019867 107 93 41
-58.672732 -857.765293 2046.960449 127 112 63
-131.915283 -1031.770515 1936.921501 145 131 83
38.877156 -636.661911 2187.424469 89 74 25
16.190006 -700.961208 2145.255470 130 113 62
-86.345005 -940.527058 1994.637108 158 143 97
50.739008 -622.264624 2196.071434 96 82 30
-48.779404 -851.396561 2053.041649 111 96 47
869.256115 -175.876653 1911.470985 114 117 114
60.192788 -601.361179 2210.682678 96 82 30
60.192788 -601.361179 2210.682678 96 82 30
99.865472 -527.961874 2250.100136 109 95 43
-62.724876 -893.424320 2027.920151 116 101 52
-62.793446 -895.757580 2025.616264 188 173 124
-25.840735 -814.277363 2079.209709 112 98 46
36.664897 -680.378532 2161.965370 112 95 44
-8.304721 -789.313793 2094.785690 207 190 139
-4.890881 -780.531454 2101.062965 99 82 31
379.797745 -140.605283 2395.299911 130 120 80
36.496198 -690.594101 2156.123543 112 95 44
730.912209 -797.283554 1403.003597 108 94 45
93.240172 -590.137911 2219.058800 98 84 32
4.615320 -786.170483 2101.027489 116 99 48
-65.424526 -950.965881 1995.866776 112 97 51
46.259311 -710.442257 2150.009727 111 94 43
-94.941133 -1032.191753 1946.989822 194 180 134
18.137561 -776.861238 2108.485794 111 94 43
-42.499584 -910.354137 2026.342201 100 84 37
108.727038 -593.824148 2218.022919 170 154 101
65.318477 -688.318205 2163.060760 113 96 45
-37.091982 -923.769951 2016.569138 116 100 53
3.634189 -833.675671 2074.023438 207 192 136
40.538731 -758.250809 2122.928047 110 93 42
30.886853 -782.699728 2108.499146 100 83 32
-5.834948 -862.546730 2059.174538 102 87 38
53.355289 -736.894608 2137.412834 111 95 42
261.611891 -362.394500 2333.472824 92 79 33
-11.394507 -888.221741 2046.715927 116 101 52
44.022125 -776.413393 2115.542793 105 88 37
40.725067 -788.605547 2107.726479 120 103 52
-24.403986 -937.788010 2013.988876 113 99 51
57.267201 -753.180456 2133.069038 111 94 43
275.207663 -375.235677 2326.302338 96 83 37
77.476275 -723.033190 2149.273491 107 90 38
225.204635 -496.383286 2246.906090 92 78 29
29.787245 -824.109077 2089.051628 112 95 44
46.412942 -791.720772 2108.020592 120 104 51
101.224983 -681.151676 2173.907852 168 152 99
35.357004 -813.789558 2098.570824 165 148 97
25.167033 -844.443607 2076.887894 108 91 40
25.167033 -844.443607 2076.887894 108 91 40
237.384844 -496.772814 2245.601654 105 91 42
82.093233 -739.919043 2139.069939 202 185 134
248.936439 -476.748466 2257.061768 106 92 43
70.673919 -766.252613 2123.064232 115 99 46
75.401253 -759.282541 2130.061531 103 87 34
293.388581 -390.000439 2314.009094 99 86 40
67.090857 -784.086609 2114.758301 117 100 49
-26.182351 -994.299221 1981.148911 117 104 60
49.402788 -828.334045 2087.045288 112 95 44
4.228229 -916.435146 2037.319374 111 96 47
-5.177613 -945.497036 2017.361641 111 97 49
276.272511 -451.698637 2271.925926 123 109 60
36.817262 -854.349995 2076.203728 175 158 107
-24.052155 -995.147133 1984.136200 198 185 141
716.741848 -122.906768 2177.721405 35 34 28
106.786621 -720.589161 2153.322029 130 114 61
83.058566 -770.796299 2124.078178 108 92 39
77.072716 -789.046049 2113.095665 111 94 43
285.535073 -449.930048 2272.940063 172 158 109
281.872344 -457.295036 2269.476509 102 88 39
124.358869 -703.184843 2162.286949 115 99 46
90.196782 -769.258738 2125.492668 106 90 37
75.481927 -799.662733 2109.019852 114 97 46
315.848589 -383.416319 2322.423553 91 80 36
144.827449 -679.011965 2172.787476 118 101 45
144.827449 -679.011965 2172.787476 118 101 45
181.208539 -426.482296 2415.847206 198 184 131
146.808255 -682.806110 2171.780586 185 168 112
-25.131509 -1032.259655 1965.621758 126 113 69
4.293771 -975.794697 2003.153038 206 191 145
299.035120 -465.681505 2263.343620 102 88 39
239.519382 -578.341961 2202.544785 171 157 105
319.269395 -428.224230 2287.568283 76 63 17
113.619161 -759.915590 2133.613586 104 88 35
122.079384 -743.715000 2143.318176 102 86 33
122.079384 -743.715000 2143.318176 102 86 33
244.821000 -575.490236 2202.411461 160 145 93
254.081631 -557.758474 2213.900185 110 96 44
163.997030 -684.903336 2168.725395 126 109 53
33.386695 -924.637699 2038.045692 109 93 46
175.669861 -676.088905 2170.062637 183 166 110
330.540514 -414.338779 2300.485611 90 78 33
140.129149 -720.352411 2158.662415 126 108 53
298.199391 -491.499424 2248.627472 103 89 39
298.199391 -491.499424 2248.627472 103 89 39
81.241369 -839.061069 2092.380142 119 102 51
331.255555 -425.123739 2293.615723 97 84 38
333.546019 -420.523024 2296.886063 90 77 31
330.094028 -430.071115 2290.087128 101 88 42
157.931566 -709.108686 2159.069633 97 80 24
-11.609565 -1038.882446 1969.398689 182 169 125
150.394011 -721.902847 2154.959106 119 102 46
260.412169 -576.824570 2201.368523 106 92 40
181.858683 -684.495735 2163.889885 120 103 47
256.747818 -581.247091 2201.664352 108 91 40
290.980816 -527.891350 2226.053810 181 167 115
303.221250 -503.776217 2241.729164 198 184 131
107.779384 -808.344078 2107.235336 119 103 50
82.991153 -853.417110 2083.081627 123 106 55
32.994565 -956.500340 2020.028687 108 94 46
92.576212 -834.083748 2095.363426 117 100 49
110.634947 -804.509068 2110.033417 119 103 50
388.392115 199.928510 2940.781403 199 208 211
280.830479 -550.046730 2216.789627 112 98 46
25.220501 -969.386101 2016.231728 107 93 45
18.733057 -992.395782 1997.661400 192 180 132
-67.069852 -1116.163349 1950.652122 213 199 151
159.599352 -725.777817 2150.033569 172 155 99
88.347220 -851.058674 2085.080338 115 98 47
327.727151 -469.044352 2262.204361 111 97 49
330.992198 -465.803480 2265.354156 96 82 34
205.027509 -673.013115 2165.667534 128 110 57
19.161987 -997.978497 1997.786522 158 145 101
299.353170 -530.857229 2227.316093 98 84 32
32.285556 -976.275349 2010.608292 118 103 57
1047.838116 -796.892881 1098.293209 147 165 170
55.097902 -932.990456 2035.777473 121 105 58
263.245893 -599.430799 2191.200066 109 92 41
102.574182 -844.908619 2089.869118 204 187 136
102.574182 -844.908619 2089.869118 204 187 136
138.708949 -784.214783 2125.071144 111 95 42
52.320617 -950.643444 2029.232407 111 95 48
242.669535 -650.690222 2168.637848 114 98 45
313.943291 -536.877489 2222.523117 107 93 41
94.447994 -879.282665 2073.606682 184 169 120
316.899800 -534.889793 2226.362038 102 87 38
234.712100 -675.432873 2159.510994 107 89 36
234.712100 -675.432873 2159.510994 107 89 36
138.925982 -810.621262 2109.279823 108 92 39
129.584050 -826.480961 2101.406479 164 148 95
85.480177 -907.754230 2056.368256 111 96 47
279.970312 -608.112335 2188.439560 120 104 51
279.970312 -608.112335 2188.439560 120 104 51
167.579675 -761.804199 2137.122917 119 102 46
97.338951 -887.909317 2069.545937 110 95 46
242.498875 -669.612694 2161.927986 123 105 52
35.190809 -1015.715313 1990.759850 164 149 103
35.382599 -1013.149261 1994.063377 109 94 48
279.603529 -618.561125 2182.490349 196 180 127
171.514225 -767.428780 2132.625771 121 104 48
66.552621 -958.223152 2028.461075 110 95 48
139.280367 -825.092411 2104.276276 111 95 42
334.706783 -528.334475 2232.218361 103 89 40
261.313486 -493.215036 2352.484131 105 91 42
135.139024 -836.749840 2097.920227 120 104 51
269.761872 -647.115612 2168.956947 99 83 30
269.761872 -647.115612 2168.956947 99 83 30
163.574922 -790.673590 2124.234581 131 114 61
347.243357 -513.628817 2242.100716 98 84 35
277.545547 -638.075781 2174.892616 116 100 47
333.412337 -542.127800 2225.076675 192 178 129
99.499905 -908.201504 2061.745453 105 90 41
362.229896 -487.149000 2259.840965 87 74 28
298.910689 -613.385296 2187.462807 204 190 138
298.910689 -613.385296 2187.462807 204 190 138
287.493753 -632.668018 2178.830910 126 110 57
364.894581 -493.385935 2256.763077 98 86 39
314.235163 -594.794655 2196.863174 96 82 30
324.223781 -579.847813 2205.421638 120 106 54
68.409079 -990.774250 2011.893845 116 101 55
243.839765 -711.500788 2143.549156 119 102 48
313.963771 -607.415915 2187.537384 118 104 52
313.963771 -607.415915 2187.537384 118 104 52
263.315797 -684.567738 2154.471207 204 186 133
328.810573 -576.108408 2208.430862 97 83 31
20.702186 -1075.676727 1971.463013 190 176 128
160.045052 -827.206326 2107.258797 124 108 55
178.351831 -800.583267 2118.322563 124 108 55
370.159030 -502.497244 2252.478790 101 87 45
177.733266 -803.194046 2117.454147 186 170 117
177.733266 -803.194046 2117.454147 186 170 117
378.255296 -477.464199 2275.217056 92 81 37
178.651118 -806.051350 2115.267563 111 95 42
214.640903 -759.421921 2130.096436 119 102 46
261.129999 -700.583076 2146.962166 127 109 56
348.373890 -553.657627 2222.267342 101 87 38
161.507237 -832.240772 2106.438828 118 102 49
-35.556343 -1138.452721 1971.895790 204 189 148
229.203486 -747.130680 2132.666969 112 95 39
266.808295 -697.470665 2148.904991 107 89 36
287.059212 -663.707209 2167.110062 112 96 43
74.341142 -1008.216953 2001.835632 119 104 58
223.488736 -759.378052 2127.328300 188 171 115
175.658464 -823.835850 2107.203865 114 98 45
147.580290 -871.493626 2083.904648 125 108 57
297.713041 -656.331921 2168.738365 119 102 51
300.612974 -651.926517 2170.762634 103 88 34
386.319327 -486.646700 2271.053696 88 76 34
334.173131 -595.967913 2202.266502 112 98 46
375.241613 -517.865372 2248.543167 82 69 23
340.847301 -586.030722 2206.870651 95 81 29
290.847540 -675.098562 2159.011269 126 108 55
290.847540 -675.098562 2159.011269 126 108 55
94.067901 -980.412102 2023.480797 162 146 99
362.846565 -548.625803 2229.606056 103 89 40
344.131947 -583.851480 2209.538078 94 79 30
328.327775 -617.375517 2191.228294 119 105 53
122.693646 -935.448456 2049.228859 168 153 104
350.759864 -581.468868 2210.686493 113 98 49
335.165024 -609.427595 2195.742226 94 80 28
142.836773 -899.389458 2073.298454 119 102 53
106.925845 -972.612000 2027.219391 113 97 50
227.205563 -778.964520 2120.533943 126 109 53
394.486666 -493.765736 2271.622086 90 78 36
179.588580 -848.542500 2096.438026 117 101 48
7.963672 -1119.955826 1970.919609 165 151 103
258.601284 -747.173691 2129.829597 115 98 42
140.001357 -920.663071 2060.778999 120 105 56
-0.982432 -1131.122017 1973.512840 215 200 153
387.288857 -525.788307 2250.257111 88 77 33
349.510264 -603.769255 2200.133896 111 97 45
104.641473 -991.608143 2018.742180 106 90 43
104.641473 -991.608143 2018.742180 106 90 43
213.016725 -811.394215 2110.187912 135 118 62
285.952020 -710.084057 2147.192383 108 90 37
368.358874 -575.025272 2216.423416 102 89 41
368.010497 -570.139551 2222.963905 109 97 49
139.525616 -931.645107 2055.845070 105 90 41
19.386475 -1117.945766 1972.736359 223 209 161
301.734853 -694.225931 2153.465462 117 101 48
325.499725 -653.101969 2176.958275 112 96 44
313.294196 -677.335644 2163.364410 116 99 48
168.029368 -887.420368 2080.540276 118 101 52
323.072720 -661.660004 2171.520805 116 99 50
227.617645 -804.544926 2111.384583 131 114 58
5.286076 -1132.699013 1976.201630 216 202 154
119.833505 -979.011059 2027.762222 117 101 54
380.662537 -562.666893 2228.782845 106 94 46
369.205070 -587.504053 2212.043953 104 90 39
107.640421 -1004.886913 2013.988304 130 114 67
157.086349 -912.732029 2068.544197 194 179 130
159.943962 -910.439968 2067.926598 117 100 51
270.216274 -753.053951 2128.729057 192 175 119
270.216274 -753.053951 2128.729057 192 175 119
386.904168 -553.088045 2238.121986 91 80 36
242.605567 -796.524096 2112.961197 119 102 46
98.480415 -1028.844833 2001.595116 176 161 112
347.816157 -635.305357 2188.591003 110 96 45
336.849594 -657.849312 2176.038170 118 101 50
347.019649 -640.796614 2184.980202 113 98 49
285.703921 -741.020870 2135.572433 117 101 48
345.104170 -646.217489 2182.833481 248 241 190
270.849729 -766.790342 2124.885178 124 107 51
642.306328 -649.319220 1865.821457 103 90 44
362.252998 -623.640251 2195.511246 114 100 51
158.467209 -939.434052 2054.278564 116 101 52
322.190261 -697.722673 2156.744003 109 93 41
290.998244 -744.396734 2137.199211 106 90 37
290.884709 -749.829626 2132.345963 141 122 70
289.174175 -756.572533 2128.682709 130 112 59
319.987535 -703.148222 2158.314896 120 103 52
247.889209 -816.737080 2106.622505 124 107 51
321.839976 -713.857269 2147.996712 126 108 55
341.785216 -679.650497 2168.838882 120 105 54
341.785216 -679.650497 2168.838882 120 105 54
387.662578 -594.036102 2219.795799 90 79 35
398.229456 -563.586473 2245.093727 82 72 32
359.032798 -651.773787 2184.220505 115 101 51
185.144198 -917.896080 2065.636635 118 101 52
34.506032 -1134.334278 1983.739853 225 208 157
405.068827 -557.100010 2250.147629 88 76 38
220.244002 -867.064762 2089.303398 139 123 70
79.760575 -1089.045238 1984.689713 160 145 95
388.867164 -597.688103 2219.377136 113 102 56
186.702955 -919.477844 2066.213036 119 102 53
260.446835 -815.397167 2106.610298 201 184 128
152.638030 -981.749535 2031.804466 128 113 64
116.606820 -1040.675259 2002.456665 143 128 79
157.413661 -977.981091 2033.104324 117 102 53
397.468257 -581.875038 2234.212303 94 83 44
375.951266 -631.097794 2198.845673 98 84 36
399.306321 -577.534533 2237.865829 86 75 37
275.841665 -795.651674 2117.006493 192 175 119
260.568070 -818.117428 2107.818985 131 114 58
306.862736 -753.864241 2132.524300 119 101 48
292.028832 -775.314379 2124.238586 130 113 58
276.730728 -797.870588 2115.066719 137 117 62
332.724690 -711.176300 2155.219269 118 101 50
332.724690 -711.176300 2155.219269 118 101 50
267.631841 -809.165668 2112.775612 126 109 53
267.631841 -809.165668 2112.775612 126 109 53
113.630068 -1050.797653 2000.152779 131 116 67
399.340439 -585.558701 2232.270813 93 82 42
149.188662 -996.645164 2026.079941 132 116 69
176.891613 -953.137970 2049.797058 121 106 57
86.567557 -1092.346764 1987.836456 156 141 92
324.389482 -733.000374 2146.325111 182 166 113
305.265546 -763.772917 2131.637192 118 100 47
274.382758 -811.691666 2110.571671 129 112 56
274.382758 -811.691666 2110.571671 129 112 56
387.585711 -625.393438 2208.709335 96 83 40
211.544108 -906.154537 2073.400879 120 103 54
360.653424 -677.763844 2176.191902 112 97 48
306.887507 -772.397709 2125.411987 124 106 53
224.313736 -888.217640 2082.602310 123 106 55
332.287645 -729.804468 2148.783875 99 81 28
276.875663 -816.453838 2109.312439 138 118 63
135.069251 -1037.658787 2007.950020 140 123 74
179.868662 -967.691708 2041.271782 116 99 50
313.174796 -976.814461 1884.728813 135 120 71
259.734750 -842.352486 2100.929260 139 122 66
332.324123 -740.126514 2142.938423 120 104 51
281.978822 -816.740704 2109.207344 187 167 112
404.206038 -597.424126 2235.166740 85 74 36
334.983349 -735.385084 2146.311760 116 99 48
249.442482 -864.557076 2091.527748 137 119 66
373.162556 -667.483759 2187.527275 110 96 47
267.121363 -840.111923 2102.964592 182 165 109
206.647277 -932.666969 2061.741638 127 110 61
361.892509 -692.467594 2172.406197 106 91 42
283.886790 -823.897266 2107.260895 130 110 55
390.344501 -642.674828 2206.516266 119 106 62
254.833555 -865.276718 2093.572807 132 114 61
153.068852 -1026.605225 2016.946220 135 118 69
155.115271 -1021.989536 2020.406914 122 105 56
304.981017 -796.489620 2119.092941 122 105 49
360.764503 -702.846384 2168.723488 110 94 47
174.390650 -992.613983 2034.136772 125 108 59
206.773591 -941.333389 2064.155769 132 115 66
276.645231 -843.997955 2101.874733 198 181 124
340.023685 -748.765659 2143.837357 121 104 53
355.931020 -720.808411 2159.803963 208 191 140
209.752107 -946.070290 2057.063866 180 163 114
246.683049 -888.077736 2084.645653 184 165 113
256.139612 -872.610188 2093.212509 134 116 63
260.796309 -867.459774 2093.917847 122 104 51
260.796309 -867.459774 2093.917847 122 104 51
102.637792 -1103.490448 1992.703629 205 191 139
385.528755 -667.530537 2193.055916 103 90 46
293.217587 -824.350452 2108.898163 134 115 62
353.555918 -728.988695 2155.090332 115 98 49
366.774607 -704.277420 2170.589066 118 102 55
192.293239 -978.738117 2040.856743 115 98 49
192.293239 -978.738117 2040.856743 115 98 49
233.121824 -912.403393 2074.380302 124 107 58
209.917784 -949.202824 2056.874466 106 89 40
105.344212 -1101.474190 1995.423698 217 202 152
326.278138 -775.331783 2132.754707 122 104 51
223.789907 -928.934860 2067.084885 180 163 114
289.482331 -833.105469 2106.775284 213 193 138
386.668992 -666.688204 2197.615623 151 139 97
111.123407 -1096.306896 1996.974945 163 148 99
-231.251931 -1221.658325 2295.177841 172 155 103
178.162360 -1005.550957 2029.424477 121 104 55
243.016315 -901.638126 2081.285095 200 183 132
250.778246 -894.448662 2084.995079 128 110 57
326.624250 -785.710430 2128.601646 126 108 55
326.624250 -785.710430 2128.601646 126 108 55
354.993224 -742.593622 2153.483772 109 93 46
281.191850 -858.194065 2099.957466 129 112 56
407.899380 -637.033129 2228.880882 139 130 93
341.885805 -773.459578 2137.664032 224 207 156
341.885805 -773.459578 2137.664032 224 207 156
488.492966 -493.943310 2318.649673 232 239 238
317.044234 -812.785625 2119.175339 120 103 47
1268.548489 -747.082710 1043.444347 69 73 69
490.528584 -494.733381 2315.844917 232 239 238
351.632714 -758.411455 2145.933533 118 101 53
326.049280 -799.610662 2125.979614 131 113 60
384.350991 -698.372173 2183.720970 97 84 40
359.580517 -745.507908 2155.904388 97 82 36
272.653937 -883.395290 2092.276573 221 203 150
306.559229 -840.721893 2108.995819 231 214 158
383.721423 -707.722187 2186.753845 111 98 54
349.447823 -777.667332 2141.978073 122 106 59
331.465578 -810.794926 2123.509216 192 174 120
316.270375 -835.317707 2113.991737 223 206 150
377.612257 -725.151825 2179.252815 187 174 130
129.198849 -1105.785751 2005.429649 225 208 157
287.904358 -877.703381 2096.811295 193 175 122
294.339752 -868.868923 2100.731659 198 181 125
511.362171 -509.686852 2297.011757 203 212 215
511.362171 -509.686852 2297.011757 203 212 215
114.328492 -1125.562763 2004.233551 167 150 101
199.877715 -1022.709846 2027.664185 195 178 127
223.914123 -986.559582 2046.335793 186 169 118
373.566222 -743.502188 2171.413231 112 99 55
393.760085 -701.847410 2201.810646 133 120 81
253.346229 -940.077686 2072.194672 218 201 150
226.928473 -986.368942 2047.863007 138 121 70
260.681009 -933.629608 2073.494148 130 111 60
274.953985 -913.959312 2081.346512 141 123 70
386.954546 -719.365406 2193.796730 87 75 35
169.590712 -1074.993610 2011.149406 203 186 135
196.215701 -1036.541557 2027.046394 153 136 85
326.846242 -841.272163 2118.792534 141 123 70
359.956813 -779.961348 2156.533432 106 93 49
347.831774 -805.846882 2138.831711 124 108 60
287.677026 -901.915169 2092.414284 138 120 67
-105.483413 111.394322 4030.378342 173 182 186
302.743673 -882.348061 2102.282715 146 126 71
366.180134 -777.741861 2158.182144 94 81 37
220.990777 -1010.296440 2043.300056 229 212 161
377.318621 -754.422617 2176.425743 156 143 99
385.841942 -733.984470 2192.634964 86 74 34
314.136267 -868.627834 2108.110237 138 121 66
354.048181 -802.142143 2144.287872 207 194 146
353.365779 -804.377937 2142.143631 106 91 45
350.062108 -808.930874 2141.463470 118 102 56
210.244751 -1028.544331 2035.171318 145 128 77
410.879612 -949.980831 1930.754471 242 224 173
373.580909 -766.789293 2169.532776 170 157 113
398.995543 -707.006311 2218.858528 85 75 40
301.855087 -893.604851 2098.466110 223 205 152
376.817775 -764.725161 2173.478508 154 141 101
276.515603 -936.442280 2080.260086 222 204 151
384.756136 -745.841169 2194.758797 162 150 110
246.620059 -983.799648 2061.326981 140 123 72
278.520298 -938.583374 2080.078125 134 116 63
404.688072 -700.852013 2232.729912 155 146 112
275.544047 -949.915981 2070.937729 130 113 62
344.082355 -835.784340 2132.692528 107 92 47
260.305476 -966.719818 2070.269775 141 124 73
276.308894 -945.018959 2077.913475 240 222 169
365.659118 -792.873192 2164.053154 104 90 48
402.665472 -711.091614 2227.015877 86 77 44
333.201385 -857.878017 2122.313499 185 169 122
281.611681 -938.379002 2085.248184 145 127 74
279.212546 -947.664928 2076.666260 136 119 67
263.283563 -970.247936 2068.801117 140 123 72
179.744101 -1090.142727 2021.760559 227 210 159
326.241398 -876.887226 2113.703918 135 118 66
367.079306 -796.266270 2170.170212 92 80 43
289.331269 -933.461094 2091.077614 131 113 60
369.555187 -789.942837 2177.725792 83 71 35
365.082932 -804.949760 2163.651466 161 149 109
365.082932 -804.949760 2163.651466 161 149 109
155.093384 -1123.265457 2025.853920 172 155 103
364.607716 -810.557079 2166.004181 138 126 86
364.607716 -810.557079 2166.004181 138 126 86
351.895761 -842.851257 2139.342690 155 141 99
331.632495 -877.955055 2120.180130 179 164 115
336.906648 -872.032166 2121.437263 164 148 101
278.202152 -962.533092 2078.855896 146 129 78
275.253177 -967.688370 2075.885201 117 100 49
352.272630 -842.355919 2142.421722 101 87 45
284.124565 -956.948662 2081.909370 193 176 125
316.414499 -904.335022 2110.031509 132 116 64
367.222214 -808.218098 2174.087143 77 65 29
275.981402 -971.416283 2075.775337 250 238 187
336.620665 -875.224400 2124.688721 109 93 49
340.460300 -869.979382 2127.124786 161 145 102
368.695402 -802.147579 2183.346939 95 84 46
368.861485 -802.176952 2183.131599 95 84 46
296.168947 -941.993332 2091.290474 137 120 69
317.026711 -909.957695 2106.768799 139 122 71
307.592320 -926.226807 2097.399712 143 126 75
265.830159 -990.482330 2069.768333 146 129 78
347.548079 -856.148243 2141.739845 105 91 49
198.240578 -1087.613583 2030.997467 218 201 149
329.630351 -894.803143 2117.091751 128 112 65
325.445342 -897.686195 2119.248009 171 155 108
335.514545 -885.794258 2123.561478 108 93 47
252.984643 -1016.155052 2058.955765 145 128 77
383.983397 -777.736712 2207.616615 154 144 110
273.132563 -985.881233 2074.195290 160 143 92
273.132563 -985.881233 2074.195290 160 143 92
289.185071 -965.469837 2083.309364 146 129 78
342.428398 -874.541759 2135.286331 101 86 46
342.428398 -874.541759 2135.286331 101 86 46
201.705599 -1088.745499 2038.063622 163 146 95
344.405198 -873.477268 2137.990189 167 155 115
344.405198 -873.477268 2137.990189 167 155 115
1353.997803 -762.417364 1019.375610 109 104 105
216.852450 -1074.472618 2041.117859 167 150 101
237.119198 -1047.314358 2051.048088 211 194 143
285.404944 -975.870323 2082.565308 151 135 81
276.203275 -991.665554 2075.036621 191 174 123
325.688338 -911.678600 2118.870926 123 107 64
197.490525 -1102.631950 2037.492752 211 195 148
336.722827 -895.762253 2129.613686 102 88 48
346.939063 -875.504589 2143.688202 154 144 104
320.555878 -926.020622 2114.644241 119 103 60
324.056745 -920.108128 2118.567276 115 99 56
324.995875 -917.202282 2121.383858 111 95 52
356.703401 -847.480965 2175.407791 142 133 94
348.997498 -868.638897 2156.442451 130 119 86
348.997498 -868.638897 2156.442451 130 119 86
344.205856 -882.744217 2147.496033 144 134 94
266.961884 -1014.838791 2072.131920 222 205 156
361.509895 -840.390491 2184.133720 92 83 46
325.963259 -921.155071 2120.061302 165 151 107
353.420496 -859.936619 2168.335152 135 125 91
353.420496 -859.936619 2168.335152 135 125 91
246.315479 -1047.537422 2057.795143 198 182 135
360.622668 -843.544769 2183.192825 109 100 63
223.087025 -1079.576778 2047.881126 238 223 174
299.170542 -967.753220 2096.038818 127 111 65
237.178802 -1062.074566 2053.373909 230 215 166
359.278083 -847.137737 2182.802391 134 126 89
299.206662 -970.091820 2094.727898 182 166 120
303.627872 -962.151718 2099.693680 185 171 123
291.250491 -985.660553 2087.903214 182 167 121
262.283444 -1030.732632 2066.909027 148 131 82
284.033942 -997.650051 2082.669830 208 194 144
276.148868 -1008.777142 2078.426552 216 200 153
274.557090 -1011.373520 2077.808762 146 130 84
229.969382 -1076.643753 2049.952507 224 210 160
226.165485 -1081.628895 2051.267815 253 246 197
329.587436 -919.983673 2131.420135 165 153 113
330.496430 -922.978878 2128.159714 111 99 59
235.465074 -1071.278954 2055.517960 141 125 77
323.679590 -935.344601 2120.916939 100 88 48
287.335706 -999.989319 2085.717964 181 166 120
298.980045 -980.913162 2097.641563 174 160 118
268.799043 -1027.655602 2075.460815 115 101 53
344.058824 -888.569260 2165.936661 146 137 104
306.396604 -970.196247 2103.846550 114 101 57
306.396604 -970.196247 2103.846550 114 101 57
321.889758 -940.832710 2124.474907 110 98 56
231.354666 -1079.704475 2058.568573 142 126 79
309.486580 -964.914322 2108.400917 199 185 143
311.288548 -960.553074 2112.479401 179 167 125
243.531442 -1065.799141 2061.986732 148 132 86
325.678539 -934.554672 2130.407715 108 98 58
332.377505 -922.966766 2137.302971 91 80 42
302.375746 -976.101017 2105.341148 108 95 54
275.622439 -1017.024899 2087.015915 127 113 65
272.599101 -1027.307606 2076.948547 204 190 142
292.494082 -996.416950 2092.646408 111 98 53
255.775547 -1049.788857 2070.221329 118 100 53
324.916101 -938.451385 2128.678703 196 185 142
342.492676 -886.696911 2178.459930 120 114 86
308.608246 -967.963886 2110.832596 100 88 48
313.386250 -960.195160 2115.380096 112 100 59
283.091474 -1010.754490 2087.215233 205 191 145
278.545666 -1019.212914 2081.778908 243 228 180
311.775684 -965.309429 2110.714531 121 109 68
260.330844 -1044.487667 2072.931480 230 214 167
315.745616 -956.762218 2117.766762 115 103 63
321.469831 -944.478035 2128.268051 118 108 65
259.984398 -1046.675682 2072.066879 141 127 79
318.817186 -952.114677 2122.409439 175 163 123
282.804966 -1013.360882 2087.417030 119 105 62
308.114171 -971.236420 2110.972786 180 168 129
330.629206 -927.017689 2143.168259 96 86 53
306.173062 -975.959969 2108.816719 178 167 129
297.055221 -991.706562 2099.825668 110 95 56
300.291038 -985.967159 2103.873062 109 97 57
310.706687 -967.306042 2115.512276 187 176 138
315.111613 -958.551884 2121.726799 169 157 116
310.389400 -966.198349 2119.727325 101 90 52
265.565896 -1041.273308 2077.964020 216 202 154
330.041242 -915.638828 2166.255569 113 106 81
317.375755 -956.599426 2125.559998 158 147 109
322.984385 -947.098064 2131.341553 93 83 45
322.984385 -947.098064 2131.341553 93 83 45
246.511245 -1066.359806 2074.455070 208 193 147
259.911227 -1049.804688 2078.674316 123 108 62
289.787650 -1007.280064 2095.910072 108 98 58
314.030290 -963.321114 2124.582100 200 189 151
314.030290 -963.321114 2124.582100 200 189 151
236.600208 -1081.383610 2071.238327 68 57 38
246.504259 -1071.094227 2072.019768 198 184 141
262.136912 -1051.330566 2078.368950 122 109 65
313.682437 -966.140652 2125.407028 94 82 47
281.772614 -1023.909378 2088.947678 131 118 74
295.329952 -1002.443790 2101.640892 115 104 67
300.764680 -988.749504 2113.658905 168 156 120
298.912787 -998.308372 2102.693939 105 93 57
250.501657 -1066.807747 2077.118874 149 137 106
280.476165 -1023.618507 2095.183754 221 208 164
254.453301 -1060.832214 2080.836296 189 176 138
279.005647 -1028.234768 2093.380928 229 217 174
299.382091 -989.187622 2120.108223 100 90 53
285.185719 -1017.695999 2103.188896 182 172 130
280.704832 -1028.244114 2095.717049 116 104 66
298.998451 -991.846275 2122.575378 155 146 109
283.370519 -1022.382927 2105.316734 168 158 122
296.777678 -995.062447 2126.480675 54 46 28
1250.100327 -765.421295 1106.591415 185 166 109
-3477.664566 260.734606 1088.564014 237 235 233
-3480.561066 248.012352 1116.357994 234 235 240
-3517.037964 244.808221 1112.654209 73 91 135
-3438.505936 220.846605 1138.662338 234 237 239
-3453.348160 212.299991 1134.572506 86 101 136
-3453.348160 212.299991 1134.572506 86 101 136
-3337.550735 210.226917 1161.590672 180 180 179
-3462.309265 199.293387 1153.919506 84 88 130
-3501.934052 195.135558 1155.332851 252 248 249
1473.201275 -999.897194 1153.684139 44 41 32
-3457.179260 186.473846 1167.645073 113 117 152
-7906.506348 1679.454803 1720.491409 135 160 166
1750.304604 -1315.746498 856.774330 169 178 181
-2989.728355 33.155140 1360.231590 252 249 244
-3086.830902 115.739441 1395.457554 42 47 46
-2992.158699 43.568760 1371.144962 159 172 174
-3084.932709 134.318113 1420.461750 122 148 158
-3317.967606 27.086702 1375.147343 249 245 240
-3111.321068 98.398858 1415.995121 43 52 52
-3098.215866 94.775862 1415.484238 43 52 52
-3448.227310 50.878829 1401.549816 51 48 43
-3602.651978 76.321453 1452.517033 209 186 144
-3662.570190 12.556696 1441.455841 213 201 183
-2518.731308 1855.694008 2274.810982 149 161 163
-3305.054855 22.471528 1482.218456 59 57 49
-3299.216080 7.725949 1491.837883 60 60 50
-3306.641006 7.912748 1501.142406 168 164 149
-3349.560547 10.713098 1521.313953 115 106 73
-3355.217361 -13.346870 1525.220585 220 194 141
-3459.308624 -17.960516 1528.611660 66 65 56
-3475.794601 -13.903660 1544.049454 57 55 45
-3484.025574 -29.554692 1546.034908 200 201 192
-3508.228302 -39.501822 1546.235657 214 195 153
-3472.461319 -23.704869 1554.849911 158 152 133
-3493.759537 -39.220327 1556.343651 123 122 103
-3497.685242 -21.863592 1570.348644 112 100 71
-3490.026855 -47.407353 1562.955093 216 196 150
-3476.008606 -36.681679 1576.057720 125 122 98
3057.433891 -1347.565651 737.443161 39 44 35
