ply
            format ascii 1.0
            element vertex 15305
            property float x
            property float y
            property float z
            property uchar blue
            property uchar green
            property uchar red
            end_header
-1183.692169 -983.266640 3103.975296 49 51 65
-1187.273502 -985.334682 3105.218506 174 183 182
-1185.449505 -991.228580 3102.856255 126 136 113
-1181.686401 -988.480663 3101.685905 145 149 154
-1184.134579 -984.081650 3103.989792 62 42 44
-1168.081856 -984.270859 3096.054459 190 194 199
-1188.866520 -985.890579 3105.883217 96 47 39
-1185.113430 -983.929634 3104.525185 54 53 62
-1185.291290 -984.028530 3104.587936 51 47 57
-1185.252190 -989.448452 3103.220367 190 194 199
-1185.252190 -989.448452 3103.220367 190 194 199
-1183.440590 -989.095211 3102.414894 149 152 157
-1186.690807 -984.528923 3105.171967 48 47 61
-1186.690807 -984.528923 3105.171967 48 47 61
-1183.785915 -989.079380 3102.600670 196 200 205
-1187.421513 -984.746933 3105.479431 50 44 56
-1157.206345 -981.092548 3091.494942 206 215 223
-1187.560368 -984.883976 3105.515862 51 44 55
-1182.653332 -988.934898 3102.089691 146 149 154
-1187.993622 -985.170460 3105.672646 54 49 62
-1187.891102 -985.268402 3105.599976 50 43 57
-1183.907127 -988.961315 3102.709961 136 140 145
-1184.301472 -988.811970 3102.941132 187 186 198
-1188.384247 -985.561848 3105.773926 64 57 68
-1181.448364 -988.627720 3101.585197 150 153 157
-1163.868237 -984.251785 3093.991089 19 21 21
-1184.570122 -989.294243 3102.982330 147 151 156
-1183.659267 -989.416122 3102.504921 149 152 156
-1186.116600 -989.568996 3103.707695 192 195 200
-1183.653641 -989.128304 3102.603149 144 147 152
-1180.966282 -982.574272 3102.908707 63 77 108
-1180.966282 -982.574272 3102.908707 63 77 108
-1182.418728 -986.997986 3102.518082 68 37 32
-1180.693531 -982.438660 3102.808952 109 124 157
-1180.693531 -982.438660 3102.808952 109 124 157
-1163.236046 -983.975697 3093.762398 155 154 155
-1183.206654 -987.009335 3102.920532 59 41 41
-1184.227753 -989.410114 3102.843285 151 154 158
-1189.158344 -986.222744 3106.108856 157 165 195
-1183.295250 -989.205360 3102.447701 145 148 153
-1183.831692 -983.489799 3104.140282 99 114 140
-1183.831692 -983.489799 3104.140282 99 114 140
-1163.296223 -983.962154 3093.805122 17 17 17
-1190.193462 -986.497879 3106.573296 42 57 85
-1182.981396 -989.538956 3102.223206 151 155 156
-1186.102390 -984.258938 3105.101967 83 96 123
-1186.102390 -984.258938 3105.101967 83 96 123
-1184.115219 -987.262249 3103.357697 134 126 129
-1186.465740 -984.463596 3105.234718 102 116 144
-1186.465740 -984.463596 3105.234718 102 116 144
-1157.074547 -981.017399 3091.449928 75 80 96
-1182.603931 -989.347267 3102.103996 198 201 205
-1183.965588 -989.579773 3102.726364 147 150 154
-1182.472038 -986.968327 3102.631378 137 124 126
-1182.472038 -986.968327 3102.631378 137 124 126
-1183.051109 -986.977863 3102.920532 125 131 135
-1182.492447 -987.758827 3102.451515 179 169 182
-1182.316113 -987.796783 3102.359581 17 11 19
-1181.757164 -988.347149 3101.956367 159 140 170
-1182.437515 -986.779499 3102.679634 60 27 25
-1190.154457 -986.516857 3106.616402 43 59 87
-1183.015251 -987.051201 3102.907944 55 33 35
-1183.015251 -987.051201 3102.907944 55 33 35
-1183.958149 -987.487698 3103.274536 129 118 120
-1183.958149 -987.487698 3103.274536 129 118 120
-1183.818531 -987.381458 3103.230095 136 123 125
-1188.958645 -985.775471 3106.208420 111 121 151
-1184.175396 -989.844131 3102.810860 143 145 147
-1184.508324 -987.325859 3103.608513 157 156 158
-1181.979275 -989.546776 3101.801491 146 149 150
-1184.987164 -988.425350 3103.588867 71 39 35
-1183.129215 -987.421131 3102.907562 168 161 159
-1183.129215 -987.421131 3102.907562 168 161 159
-1183.442307 -987.338638 3103.090668 36 19 23
-1183.442307 -987.338638 3103.090668 36 19 23
-1184.736729 -987.512207 3103.712082 158 153 161
-1190.189838 -986.460400 3106.718636 147 155 184
-1182.379055 -989.792824 3101.970863 151 153 154
-1182.379055 -989.792824 3101.970863 151 153 154
-1168.805408 -986.402035 3095.996284 31 31 33
-1182.883644 -987.303734 3102.845573 62 26 27
-1189.901543 -984.937954 3107.003975 89 126 153
-1183.904743 -990.129566 3102.698135 146 150 151
-1183.620644 -987.618542 3103.172684 93 88 92
-1186.719131 -987.924957 3104.681015 71 33 26
-1183.899784 -987.398529 3103.384781 57 30 28
-1182.629967 -982.515240 3103.971100 71 73 90
-1161.236668 -981.340408 3093.470001 29 35 52
-1184.545803 -987.799644 3103.630066 124 118 120
-1188.043404 -988.370800 3105.278015 74 33 29
-1174.001503 -981.469345 3099.891663 23 21 21
-1183.075333 -987.752151 3102.924347 136 131 132
-1183.916950 -987.764072 3103.353119 142 134 135
-1186.254597 -988.286114 3104.416656 68 49 47
-1184.722233 -983.038330 3104.951859 80 82 113
-1184.648800 -988.053513 3103.660774 166 160 161
-1182.573795 -990.323830 3102.062988 192 189 191
-1187.901306 -988.546085 3105.200386 74 38 32
-1187.901306 -988.546085 3105.200386 74 38 32
-1188.128662 -983.912563 3106.495094 84 92 126
-1188.912296 -984.100628 3106.850243 85 92 126
-1189.784622 -984.547806 3107.187080 88 99 132
-1189.426994 -984.281731 3107.075119 96 103 134
-1189.862728 -984.431076 3107.259941 96 106 135
-1187.672138 -988.656616 3105.111694 72 35 30
-1194.008827 -985.633469 3109.100723 110 116 151
-1194.008827 -985.633469 3109.100723 110 116 151
-1187.084866 -987.989044 3104.986572 140 105 58
-1193.366337 -985.830021 3108.735275 108 115 146
-1195.153141 -986.480713 3109.514236 99 107 137
-1194.657421 -986.668682 3109.234619 145 161 133
-1196.686840 -987.541008 3110.082817 149 167 131
-1186.045933 -988.952446 3104.316521 144 113 88
-1186.045933 -988.952446 3104.316521 144 113 88
-1188.251019 -989.457417 3105.352020 167 137 112
-1184.232140 -990.671158 3103.012657 168 153 166
-1192.711353 -986.269283 3108.452606 33 26 42
-1182.604313 -990.495205 3102.221298 198 199 202
-1185.016155 -988.762951 3103.893661 175 144 119
-1168.543243 -986.475945 3095.993233 23 20 22
-1197.593498 -987.727642 3110.634613 65 72 54
-1196.684837 -987.675858 3110.183334 39 39 36
-1173.657894 -981.524658 3099.853897 161 169 173
-1185.293388 -991.588974 3103.388214 10 3 9
-1194.262600 -986.756325 3109.220886 68 45 38
-1149.656963 -980.466652 3087.754631 141 140 142
-1185.084152 -989.483738 3103.868484 154 117 91
-1185.045242 -990.002632 3103.718758 166 128 100
-1185.045242 -990.002632 3103.718758 166 128 100
-1185.298252 -984.775448 3105.177116 198 182 174
-1184.683514 -984.491062 3104.933357 210 212 213
-1182.987499 -984.413242 3104.094887 64 65 46
-1180.262375 -989.888954 3101.351929 98 96 118
-1172.509098 -981.423187 3099.396133 67 62 60
-1183.397484 -984.537315 3104.330063 194 180 172
-1186.231804 -985.800362 3105.532265 180 173 196
-1182.942581 -990.295506 3102.721977 192 153 127
-1181.297493 -989.804554 3101.994705 111 49 43
-1184.006310 -984.676266 3104.669380 54 21 12
-1186.265278 -985.946083 3105.578423 85 24 19
-1173.054600 -981.450462 3099.740219 75 71 69
-1188.156605 -986.328411 3106.493759 62 15 6
-1188.655663 -986.355686 3106.824112 91 47 33
-1178.415489 -989.136219 3100.764656 16 11 14
-1160.100555 -982.524967 3092.684364 158 158 158
-1181.991577 -989.870262 3102.492142 159 119 94
-1181.063271 -990.117264 3102.005386 117 55 47
-1183.834839 -983.815479 3105.034256 144 87 34
-1185.179329 -984.936142 3105.522728 155 92 33
-1181.925488 -983.255100 3104.214096 184 183 177
-1182.147694 -990.058136 3102.694702 195 157 128
-1186.499023 -985.035896 3106.270027 201 196 188
-1186.516953 -985.219860 3106.240082 195 191 180
-1186.516953 -985.219860 3106.240082 195 191 180
-1157.320595 -981.132603 3091.565323 31 33 32
-1188.794041 -985.700893 3107.672691 182 193 203
-1183.352661 -983.789444 3105.183029 123 137 150
-1191.400433 -986.864281 3108.945465 144 156 168
-1161.956406 -983.536625 3093.545914 76 78 82
-1173.120499 -983.642769 3099.767494 177 192 203
-1138.253784 -985.901833 3079.727745 215 218 217
-1139.636993 -985.485744 3080.597878 203 205 204
-1139.151955 -985.636902 3080.247307 91 93 93
-1156.709862 -980.978107 3091.304398 76 70 60
-1156.145191 -980.403423 3090.926933 167 176 185
-1160.017300 -982.517624 3092.843246 8 6 7
-1160.653210 -982.916355 3093.124390 131 137 144
-1155.857468 -981.092262 3090.754128 202 200 199
-1156.488705 -980.935574 3091.134834 196 200 199
-1155.840397 -980.351162 3090.872574 28 26 39
-1162.714863 -984.054852 3094.208145 28 26 39
-1369.260883 -1070.027161 3213.104630 43 94 140
-1157.081985 -980.865860 3091.618156 69 80 95
-1157.081985 -980.865860 3091.618156 69 80 95
-1156.613445 -980.837059 3091.201401 64 69 70
-1157.089138 -980.965710 3091.464996 68 73 72
-1157.524872 -981.072044 3091.711044 5 4 8
-1157.580757 -980.990505 3091.774368 125 129 130
-1157.644844 -981.098270 3091.794968 65 67 67
-1157.644844 -981.098270 3091.794968 65 67 67
-1157.032681 -980.949306 3091.434479 65 67 67
-1157.272148 -981.025887 3091.573906 62 60 59
-1157.722473 -981.116676 3091.850471 19 20 16
-1155.625629 -979.667187 3090.797234 134 143 150
-1156.526566 -980.559158 3091.191673 204 220 227
-1156.571484 -980.997276 3091.122055 199 196 191
-1154.638290 -978.951359 3090.195465 204 219 228
-1157.341385 -981.118584 3091.619492 33 34 36
-1157.737923 -981.319618 3091.851425 13 15 20
-1157.801819 -981.251431 3091.899872 16 13 8
-1156.696510 -980.965328 3091.206932 239 238 229
-1157.706928 -981.286049 3091.832161 11 12 12
-1157.397938 -981.151295 3091.655540 117 125 129
-1157.726097 -981.286526 3091.844940 47 48 46
-1157.729340 -981.301498 3091.848183 33 34 36
-1141.418266 -970.783234 3081.753731 21 26 26
-1157.873726 -981.388187 3091.933441 13 15 20
-1156.345463 -980.451298 3091.069412 64 70 74
-1157.748032 -981.321049 3091.863823 117 125 129
-1156.277180 -980.381203 3091.033173 35 40 43
-1156.347466 -980.445099 3091.069412 65 65 67
-1156.798363 -980.939770 3091.278458 246 238 203
-1156.396961 -980.479717 3091.094971 26 23 22
-1157.935047 -981.414890 3091.977882 117 125 129
-1156.818104 -980.932045 3091.289139 251 247 247
-1156.925869 -980.914116 3091.336823 168 153 166
-1157.206345 -980.852318 3091.592026 246 239 196
-1157.155228 -980.864525 3091.547203 191 190 179
-1157.155228 -980.864525 3091.547203 191 190 179
-1156.881905 -980.897903 3091.363144 59 57 56
-1161.294174 -982.691288 3094.681549 198 184 154
-1158.551979 -981.612778 3092.479134 63 61 61
-1158.964634 -981.794739 3092.977142 227 229 227
-1158.064079 -981.518745 3092.108345 11 9 8
-1142.808819 -984.211826 3079.247856 178 175 174
-1155.832100 -980.165577 3090.546799 130 139 142
-1157.276821 -980.843353 3091.647339 174 165 142
-1158.289719 -981.602478 3092.291260 8 4 3
-1155.949402 -980.041599 3090.779305 226 235 239
-1155.949402 -980.041599 3090.779305 226 235 239
-1155.984402 -980.073643 3090.801239 226 235 239
-1157.012653 -980.922508 3091.690826 93 93 91
-1157.926559 -981.727982 3092.324066 212 222 228
-1157.853603 -981.452656 3092.030525 14 12 12
-1156.991196 -980.858898 3091.560745 228 233 235
-1160.974407 -982.250786 3094.664001 48 55 68
-1157.585144 -980.813122 3091.906738 97 90 64
-1160.729504 -982.382202 3094.330406 32 30 19
-1157.762051 -980.813122 3092.059135 150 143 115
-1157.798004 -980.809784 3092.095184 125 116 84
-1145.802689 -981.836224 3080.860519 122 141 161
-1145.443821 -981.894970 3080.480957 66 89 106
-1159.438705 -980.724716 3093.776131 70 73 80
-1145.520496 -981.847382 3080.520439 149 169 189
-1145.462894 -981.863880 3080.405998 62 78 93
-1145.234203 -981.911945 3080.161285 179 209 216
-1145.984268 -981.660175 3080.914497 116 123 134
-1145.688725 -981.655788 3080.586624 68 73 84
-1145.234680 -981.872463 3080.094147 111 148 163
-1158.251858 -980.882549 3092.510796 85 78 53
-1145.264816 -981.824303 3080.117989 138 158 179
-1145.699501 -981.580830 3080.555153 76 83 94
-1145.637131 -981.627083 3080.483055 117 127 140
-1145.875168 -981.654549 3080.681610 123 132 145
-1145.063496 -981.858826 3079.863358 62 85 100
-1144.927502 -981.828117 3079.706001 134 151 170
-1145.001507 -981.767750 3079.788971 75 73 83
-1145.834637 -981.537151 3080.617523 148 162 177
-1145.572662 -981.556034 3080.298805 70 79 93
-1145.572662 -981.556034 3080.298805 70 79 93
-1144.985104 -981.827831 3079.642105 68 91 108
-1145.516682 -981.526756 3080.193901 148 162 176
-1145.516682 -981.526756 3080.193901 148 162 176
-1144.746113 -981.804848 3079.376602 139 155 174
-1145.185757 -981.619358 3079.837418 77 80 91
-1145.303440 -981.536865 3079.915428 72 81 95
-1145.303440 -981.536865 3079.915428 72 81 95
-1144.489574 -981.630707 3079.082108 115 122 136
-1144.708824 -981.819439 3079.254913 93 123 138
-1101.725864 -912.441635 3048.459625 174 182 189
-1145.196247 -981.504631 3079.745293 148 163 182
-1145.162106 -981.587791 3079.682350 75 79 90
-1144.803619 -981.768322 3079.292679 148 166 186
-1158.480549 -980.936527 3092.749214 90 83 56
-1145.017719 -981.485462 3079.512215 132 148 164
-1145.160103 -981.514359 3079.644585 69 80 95
-1145.160103 -981.514359 3079.644585 69 80 95
-1156.480312 -980.951309 3090.966034 215 226 234
-1158.536530 -980.979538 3092.796898 81 77 48
-1144.434547 -981.809902 3078.831673 71 83 100
-1144.826603 -981.513214 3079.253006 82 92 105
-1144.586563 -981.749058 3078.968048 138 152 173
-1144.857407 -981.567955 3079.247093 71 77 90
-1144.932652 -981.471825 3079.329300 152 167 184
-1144.906521 -981.481457 3079.234886 76 85 98
-1155.787754 -980.628300 3090.171623 208 198 145
-1144.912243 -981.444168 3079.200172 151 169 186
-1144.683743 -981.458187 3078.895950 73 82 94
-1158.641815 -981.780624 3092.792511 46 46 26
-1144.648075 -981.422043 3078.799438 155 170 188
-1144.592094 -981.506920 3078.707123 69 75 86
-1144.552898 -981.508827 3078.664207 73 77 87
-1144.459438 -981.427479 3078.532219 75 84 93
-1158.764839 -981.085396 3093.041611 153 146 113
-1145.325470 -980.682564 3079.509163 184 188 192
-1158.807850 -981.131458 3093.079948 160 155 126
-1158.818913 -981.141853 3093.088722 145 139 109
-1144.795322 -981.298733 3078.831482 169 169 171
-1144.251823 -981.393814 3078.241348 125 138 153
-1158.839703 -981.127834 3093.122101 108 103 72
-1144.281769 -981.406498 3078.190804 82 91 103
-1158.882046 -981.170082 3093.162918 87 81 53
-1144.144535 -981.365013 3077.910423 75 84 96
-1157.860279 -981.871986 3092.157364 202 214 222
-1144.039059 -981.329155 3077.736664 131 143 158
-1158.352280 -982.009983 3092.635918 198 212 219
-1156.344986 -980.261230 3090.920448 117 125 132
-1143.960381 -981.326962 3077.570343 72 81 94
-1158.442020 -982.241154 3092.691040 214 228 234
-1143.480206 -979.190731 3077.256393 120 121 132
-1144.005871 -981.287956 3077.467728 78 86 96
-1144.874001 -981.245708 3078.336143 78 87 100
-1158.787441 -982.220078 3093.060493 133 139 152
-1158.787441 -982.220078 3093.060493 133 139 152
-1143.340111 -979.323387 3077.002144 127 132 146
-1143.758297 -981.252670 3077.133560 134 148 164
-1161.418247 -986.011314 3095.234871 46 43 39
-1161.418247 -986.011314 3095.234871 46 43 39
-1143.918610 -981.336975 3077.243423 78 80 88
-1142.731762 -978.897285 3076.317024 157 163 176
-1142.731762 -978.897285 3076.317024 157 163 176
-1143.653011 -981.258583 3076.932335 78 87 100
-1159.402752 -982.179832 3093.647575 106 99 58
-1143.654156 -981.336880 3076.871490 130 141 153
-1143.654156 -981.336880 3076.871490 130 141 153
-1143.577194 -981.213570 3076.795006 137 148 165
-1143.615055 -981.214619 3076.741409 80 89 98
-1143.615055 -981.214619 3076.741409 80 89 98
-1143.336201 -979.267502 3076.729012 125 128 142
-1143.573380 -981.162357 3076.594734 143 159 171
-1143.371964 -981.273460 3076.347351 72 76 84
-1170.831299 -987.208748 3105.851364 59 69 93
-1143.601799 -981.256485 3076.531792 151 163 177
-1143.481255 -981.179142 3076.400375 91 100 113
-1143.481255 -981.179142 3076.400375 91 100 113
-1143.620586 -981.123161 3076.496506 144 159 174
-1143.442822 -981.266594 3076.241302 126 135 148
-1143.359280 -981.134415 3076.118660 83 92 103
-1143.539047 -981.186104 3076.296616 116 125 135
-1143.201447 -981.203842 3075.837135 79 83 92
-1155.818081 -979.560661 3090.421295 166 177 185
-1143.209362 -981.090641 3075.810242 82 88 99
-1143.209362 -981.090641 3075.810242 82 88 99
-1142.107773 -979.036331 3074.785995 84 89 93
-1143.276691 -981.160831 3075.762939 74 80 91
-1143.290138 -981.014061 3075.759888 162 176 193
-1143.416214 -981.059170 3075.885201 81 90 100
-1143.313503 -981.345367 3075.646973 79 88 101
-1143.313503 -981.345367 3075.646973 79 88 101
-1143.338966 -981.183243 3075.697327 119 124 135
-1143.235779 -981.000805 3075.596046 138 151 169
-1143.229008 -981.007290 3075.491714 80 88 99
-1142.703247 -980.059052 3075.012207 104 109 112
-1142.703247 -980.059052 3075.012207 104 109 112
-1157.522678 -981.614494 3091.938972 89 93 94
-1143.181038 -980.958748 3075.366974 149 158 176
-1143.288708 -981.143379 3075.419617 120 123 134
-1143.109322 -980.698681 3075.219917 148 150 151
-1143.177319 -980.957413 3075.260544 78 88 97
-1143.177319 -980.957413 3075.260544 78 88 97
-1143.177795 -981.157494 3075.177193 81 85 99
-1159.759617 -982.388592 3094.218254 181 171 126
-1143.314743 -981.390953 3075.280762 115 144 156
-1143.136597 -980.902386 3075.125885 154 165 179
-1142.231369 -979.136276 3074.256325 94 98 100
-1143.136215 -980.738831 3075.021935 155 157 158
-1143.082142 -980.863953 3074.931908 155 165 181
-1143.564034 -980.978394 3075.442505 82 86 96
-1143.409634 -981.055927 3075.247002 113 119 130
-1143.323994 -980.872154 3075.134277 79 86 93
-1154.596043 -978.934479 3089.050484 215 226 234
-1159.125423 -982.999611 3093.581009 215 226 234
-1143.402386 -981.196022 3075.012779 228 233 235
-1143.301582 -981.129932 3074.890709 98 117 134
-1143.117237 -980.783558 3074.681091 190 191 195
-1157.439613 -981.545639 3091.897392 126 122 121
-1142.178535 -980.501366 3073.401451 108 112 113
-1157.603455 -981.736755 3092.068291 174 174 168
-1143.180084 -980.544281 3074.407768 131 139 139
-1157.313061 -981.152058 3092.020798 80 77 74
-1155.820942 -979.650974 3090.225792 193 205 211
-1160.115623 -982.673645 3094.903183 99 90 55
-1159.811783 -983.005238 3094.625854 227 234 235
-1159.820461 -983.012104 3094.636345 227 234 235
-1157.472324 -981.644440 3091.961861 39 36 32
-1157.283306 -981.402779 3091.764641 39 36 32
-1160.219383 -982.760525 3095.112228 157 148 113
-1157.092190 -981.182575 3091.565514 47 43 42
-1156.453705 -980.260944 3090.867043 103 99 98
-1157.631207 -981.961536 3092.161942 99 97 96
-1160.321617 -983.618927 3095.439720 29 30 29
-1160.324001 -983.635712 3095.450211 180 199 206
-1157.739544 -980.952263 3092.160988 221 217 184
-1157.066822 -981.156540 3091.546059 103 99 98
-1157.310390 -980.819798 3091.724396 182 179 175
-1157.621956 -981.979847 3092.167282 103 99 98
-1158.110332 -982.715988 3092.720222 103 99 98
-1160.688782 -983.031273 3096.178818 180 170 117
-1156.712055 -980.575085 3091.144753 55 56 54
-1156.736660 -980.639839 3091.166687 167 163 162
-1156.720066 -980.796242 3091.072273 65 65 67
-1142.289639 -969.606018 3070.398712 213 224 226
-1159.424877 -985.119820 3095.021439 155 151 150
-1156.766319 -980.684757 3091.198730 47 45 44
-1141.928005 -968.714619 3069.792557 150 161 165
-1141.512108 -968.164444 3069.217300 208 218 224
-1159.483719 -985.324383 3095.119476 226 236 243
-1161.014938 -983.853149 3096.843147 163 171 171
-1156.477070 -980.156326 3090.834808 35 31 30
-1156.156731 -979.481030 3090.448761 165 175 182
-1156.206799 -979.586601 3090.497017 171 181 188
-1146.275711 -967.835140 3076.108742 136 147 151
-1146.275711 -967.835140 3076.108742 136 147 151
-1156.218529 -979.646015 3090.486526 174 185 193
-1156.177711 -979.781151 3090.371513 176 187 195
-1156.472301 -980.244160 3090.754700 178 189 197
-1161.713600 -983.211040 3098.511696 219 227 227
-1158.211231 -982.207775 3092.724228 198 212 219
-1158.211231 -982.207775 3092.724228 198 212 219
-1161.481380 -983.712673 3098.141479 208 198 145
-1156.610870 -980.462074 3090.947533 194 200 203
-1156.610870 -980.462074 3090.947533 194 200 203
-1162.714863 -984.471893 3100.241089 231 239 239
-1162.714863 -984.471893 3100.241089 231 239 239
-1162.439823 -984.215355 3099.843597 231 239 239
-1162.439823 -984.215355 3099.843597 231 239 239
-1159.183502 -981.348801 3094.668388 105 105 101
-1151.007366 -972.372723 3081.801605 172 184 188
-1155.802822 -978.906155 3089.669991 143 155 161
-1157.727528 -981.439018 3092.183685 227 229 227
-1149.820805 -970.517159 3079.542542 173 185 189
-1156.892967 -980.908966 3091.360664 155 151 150
-1156.915283 -980.945683 3091.396904 68 63 64
-1156.844234 -980.829525 3091.281700 68 63 64
-1162.076378 -984.698772 3099.793816 57 52 44
-1156.315613 -979.918194 3090.423775 112 110 109
-1162.997818 -983.229923 3101.491165 227 232 233
-1162.112904 -984.688091 3099.889374 96 93 73
-1162.500095 -984.762573 3100.564003 170 165 135
-1162.615871 -984.711170 3100.828743 229 236 234
-1162.525749 -984.650898 3100.686073 229 236 234
-1155.769539 -978.846455 3089.510536 180 189 194
-1155.809402 -978.919125 3089.575577 180 189 194
-1162.264061 -985.511017 3100.402260 134 142 145
-1163.140011 -985.083771 3102.029419 217 227 227
-1163.807583 -986.362076 3103.439713 73 77 77
-1164.264393 -986.874580 3104.433823 213 225 227
-1163.699436 -983.540058 3103.606033 82 74 67
-1163.699436 -983.540058 3103.606033 82 74 67
-1157.400799 -981.284046 3092.010689 211 222 226
-1143.555641 -976.888371 3087.263870 176 184 187
-1143.652534 -976.793289 3087.325859 179 187 192
-1145.841503 -978.395081 3087.708473 57 70 79
-1145.247936 -978.149223 3087.542152 145 163 174
-1143.694210 -977.359581 3087.158012 123 136 144
-1143.694210 -977.359581 3087.158012 123 136 144
-1143.342686 -976.674461 3087.189102 180 188 195
-1158.163357 -980.986023 3091.783905 124 168 178
-1158.168125 -981.026745 3091.776657 135 195 203
-1156.706142 -980.952072 3091.219902 166 218 220
-1142.963505 -976.536751 3087.029076 181 189 196
-1143.780899 -977.410412 3087.074661 112 125 133
-1143.765640 -977.459431 3087.052917 119 132 140
-1154.297638 -980.650425 3090.342522 151 214 219
-1142.822361 -976.548195 3086.913300 109 118 125
-1157.736778 -981.020069 3091.621971 142 50 28
-1156.517601 -980.942917 3091.156197 220 231 235
-1156.555748 -980.943394 3091.163826 153 215 221
-1153.503227 -980.534267 3090.040016 179 228 233
-1156.517792 -980.942822 3091.156769 220 231 235
-1156.958008 -981.009197 3091.292763 118 86 78
-1157.446098 -981.013298 3091.507149 61 110 112
-1157.446098 -981.013298 3091.507149 61 110 112
-1157.014179 -980.981255 3091.340256 69 110 114
-1156.060314 -980.895138 3090.975761 65 113 120
-1156.060314 -980.895138 3090.975761 65 113 120
-1156.341267 -980.921555 3091.082764 64 109 115
-1156.653976 -980.953598 3091.201210 57 103 109
-1157.127190 -980.994129 3091.382980 63 112 113
-1157.127190 -980.994129 3091.382980 63 112 113
-1155.547047 -980.829716 3090.784264 60 113 119
-1159.317780 -981.127453 3092.206764 115 49 34
-1143.770027 -977.670670 3086.867523 104 119 128
-1156.696320 -980.954742 3091.218376 160 209 212
-1154.618835 -980.687141 3090.444374 90 139 142
-1154.618835 -980.687141 3090.444374 90 139 142
-1142.309284 -976.262665 3086.670113 189 196 203
-1157.795906 -981.044865 3091.643143 159 209 212
-1144.971275 -978.178406 3087.205887 75 87 97
-1144.971275 -978.178406 3087.205887 75 87 97
-1156.332684 -980.844116 3091.105652 150 158 165
-1156.524467 -980.940533 3091.152191 164 219 224
-1143.006420 -977.141762 3086.692047 119 130 138
-1159.318447 -981.230831 3092.179298 156 209 222
-1142.646027 -976.913166 3086.606407 120 131 139
-1142.646027 -976.913166 3086.606407 120 131 139
-1143.785572 -977.866936 3086.777878 146 162 171
-1143.346310 -977.545834 3086.688423 104 119 128
-1145.373821 -978.248215 3087.250710 76 93 102
-1145.373821 -978.248215 3087.250710 76 93 102
-1143.730831 -977.698517 3086.711311 72 87 96
-1143.730831 -977.698517 3086.711311 72 87 96
-1158.665466 -981.069565 3092.014885 144 197 201
-1157.214928 -981.186104 3091.362572 179 187 192
-1142.120075 -976.143742 3086.440468 192 198 203
-1158.975410 -981.027699 3092.164803 11 74 90
-1158.975410 -981.027699 3092.164803 11 74 90
-1144.740105 -978.077507 3086.977959 77 94 103
-1143.963623 -977.770424 3086.728859 78 93 102
-1158.310127 -981.074524 3091.844368 43 11 1
-1157.743931 -981.036854 3091.642952 48 8 0
-1144.669724 -977.992439 3086.951828 136 151 160
-1159.049702 -981.036091 3092.201424 103 177 192
-1158.470726 -981.053638 3091.922569 135 195 203
-1145.144272 -978.163528 3087.079811 73 90 98
-1143.736172 -977.696514 3086.603165 74 89 99
-1143.244267 -977.435017 3086.459160 97 113 125
-1141.637135 -975.952148 3086.189461 182 191 199
-1141.145229 -975.744057 3086.012459 78 87 98
-1156.406784 -980.931664 3091.092873 95 104 110
-1156.712437 -980.970287 3091.226387 116 214 223
-1141.306496 -975.821495 3086.022758 174 184 192
-1159.758377 -981.251907 3092.422867 153 217 222
-1159.504795 -981.240845 3092.320251 153 215 221
-1142.344570 -977.432632 3086.001778 161 177 183
-1157.203579 -981.016254 3091.409683 156 209 222
-1157.986259 -981.093025 3091.724777 153 215 221
-1156.520939 -980.945206 3091.160965 220 231 235
-1158.621025 -981.132984 3092.009735 50 121 131
-1157.554531 -981.051922 3091.570473 35 114 122
-1154.552555 -980.667019 3090.372276 65 151 158
-1140.451336 -975.467300 3085.686111 76 85 94
-1140.451336 -975.467300 3085.686111 76 85 94
-1155.853939 -980.847168 3090.886116 118 215 222
-1140.487957 -975.870705 3085.524368 119 129 136
-1156.407642 -980.931664 3091.093445 95 104 110
-1160.948753 -981.287003 3093.056679 209 153 145
-1160.948753 -981.287003 3093.056679 209 153 145
-1161.478138 -981.339836 3093.285370 141 49 28
-1156.921959 -981.012630 3091.290665 63 137 159
-1156.928349 -981.017876 3091.291809 69 147 170
-1156.888580 -981.058311 3091.273880 105 118 126
-1156.408310 -980.931664 3091.094017 95 104 110
-1156.215191 -980.902386 3090.994835 203 199 168
-1156.805706 -980.972099 3091.247940 95 107 121
-1143.809319 -974.998093 3086.483002 160 160 160
-1142.636967 -974.641323 3085.980415 148 153 153
-1139.140129 -976.915264 3083.497047 49 35 34
-1156.256866 -980.967331 3091.029739 64 63 62
-1146.596527 -976.138687 3087.491417 52 54 63
-1129.535675 -974.211502 3079.325294 150 145 146
-1141.243839 -974.088669 3085.273933 125 127 127
-1156.478691 -980.944824 3091.136360 120 131 139
-1131.124306 -974.537945 3079.906273 62 35 33
-1131.124306 -974.537945 3079.906273 62 35 33
-1156.867409 -980.910015 3091.329956 15 16 21
-1140.776062 -973.856735 3084.875107 88 90 90
-1156.620502 -980.912399 3091.212654 179 228 233
-1156.637192 -981.090355 3091.156960 156 164 172
-1140.404797 -973.541451 3084.554291 95 95 95
-1137.890816 -972.339058 3083.448219 2 2 2
-1139.613342 -972.924232 3084.177017 1 1 1
-1148.295593 -976.783371 3087.721825 28 32 38
-1151.518822 -978.634644 3088.952637 73 73 73
-1146.055794 -975.804424 3086.706543 156 154 153
-1156.761932 -980.992603 3091.270065 8 12 19
-1156.210136 -980.873203 3091.021156 103 106 108
-1156.616020 -980.975246 3091.200638 2 5 9
-1156.462288 -980.933952 3091.121101 59 56 52
-1157.010460 -981.055069 3091.380119 103 106 108
-1156.457806 -980.932331 3091.117477 59 56 52
-1156.599808 -980.975056 3091.192818 90 97 104
-1156.939125 -981.039333 3091.349411 5 8 12
-1156.727600 -981.007099 3091.249657 90 97 104
-1156.843948 -981.034851 3091.301918 90 97 104
-1156.842709 -981.030083 3091.302872 85 88 96
-1156.862164 -980.995464 3091.322899 15 22 21
-1156.938171 -981.050110 3091.346741 85 88 96
-1156.938171 -981.050110 3091.346741 85 88 96
-1156.500721 -980.959511 3091.146660 88 90 90
-1156.709957 -980.984974 3091.253090 182 183 180
-1156.701374 -980.987263 3091.247940 110 110 104
-1156.714821 -980.868149 3091.288376 61 59 49
-1156.728554 -980.862236 3091.298866 184 180 154
-1156.308937 -980.931759 3091.056061 164 165 163
-1156.723309 -980.862999 3091.297150 241 236 199
-1156.350040 -980.856323 3091.026688 229 237 233
-1156.537628 -980.923843 3091.193390 207 199 155
-1156.819534 -981.055069 3091.318703 6 4 3
-1156.604099 -981.117916 3091.195297 50 49 49
-1156.694221 -980.875206 3091.283989 206 194 145
-1156.018353 -980.581951 3090.945625 209 225 231
-1156.018353 -980.581951 3090.945625 209 225 231
-1157.254410 -981.350136 3091.551781 10 10 10
-1156.661129 -980.889130 3091.266441 134 122 80
-1156.651783 -980.894470 3091.260910 209 197 162
-1156.644630 -980.897236 3091.257286 244 241 202
-1156.383610 -980.875778 3091.097832 173 181 185
-1156.367016 -980.870438 3091.085434 18 16 15
-1156.627846 -980.906200 3091.247749 94 84 60
-1156.628895 -980.903625 3091.249275 113 104 68
-1156.624794 -980.905342 3091.247177 119 107 68
-1156.568050 -980.988216 3091.192436 65 65 63
-1156.330109 -980.834770 3091.067505 26 21 22
-1156.679344 -981.084156 3091.234779 90 93 91
-1156.401062 -980.889130 3091.104126 128 134 139
-1156.613827 -980.910301 3091.241264 182 171 131
-1156.292820 -980.808640 3091.045761 61 62 60
-1156.597710 -980.918503 3091.231155 76 68 38
-1156.318665 -980.939102 3091.021156 54 53 50
-1156.594467 -980.919838 3091.229439 82 75 44
-1155.922890 -980.789089 3090.785599 7 10 13
-1156.152439 -980.827141 3090.885353 124 129 132
-1156.585979 -980.924702 3091.223907 156 149 122
-1156.315136 -980.894089 3091.044426 7 10 11
-1156.578827 -980.927086 3091.219711 71 63 34
-1156.305695 -980.836010 3090.989685 204 198 163
-1156.574631 -980.927277 3091.217995 106 100 66
-1156.332397 -980.817413 3091.033363 201 212 220
-1156.572437 -980.928612 3091.216278 77 72 44
-1156.571293 -980.927658 3091.216469 164 155 119
-1156.566048 -980.931377 3091.212082 120 117 90
-1156.561852 -980.932140 3091.209221 81 77 49
-1164.364529 -979.142380 3097.929192 71 61 54
-1165.530014 -979.029846 3098.897171 69 62 53
-1156.557751 -980.932522 3091.207504 104 95 60
-1156.589985 -980.948353 3091.226768 22 20 19
-1156.553173 -980.971336 3091.198540 224 214 172
-1156.729317 -981.026363 3091.324425 58 56 55
-1156.515503 -980.968380 3091.170692 5 6 6
-1156.540871 -980.937672 3091.196823 105 98 65
-1156.504059 -980.963612 3091.163445 64 67 68
-1156.532860 -980.943108 3091.189957 59 55 30
-1156.529903 -980.942917 3091.188049 59 56 28
-1156.532097 -980.940723 3091.190529 66 63 32
-1156.503391 -980.985165 3091.157532 120 118 116
-1156.497669 -980.959892 3091.159821 100 105 104
-1156.475353 -980.961514 3091.140366 193 202 210
-1156.475353 -980.961514 3091.140366 193 202 210
-1160.722733 -980.632019 3094.894028 122 129 138
-1166.568375 -980.054855 3100.042534 217 225 225
-1165.170002 -980.172348 3098.814011 217 225 225
-1156.527901 -980.941391 3091.188049 67 62 29
-1161.320305 -980.603504 3095.426750 51 56 59
-1170.489693 -980.759335 3103.448486 92 109 125
-1170.489693 -980.759335 3103.448486 92 109 125
-1156.602669 -980.955219 3091.229248 12 16 23
-1156.576824 -980.948067 3091.225815 10 10 14
-1163.148022 -980.402660 3097.178459 119 122 130
-1164.905739 -980.190182 3098.816109 235 241 243
-1174.018669 -981.596851 3106.578064 122 130 137
-1156.311417 -980.915356 3090.977478 86 102 120
-1165.662670 -980.170441 3099.520874 116 123 132
-1166.239834 -980.085468 3100.078773 69 83 88
-1166.252899 -980.133629 3100.107193 57 62 67
-1167.044449 -980.021000 3100.863647 127 140 148
-1156.483364 -980.955601 3091.151237 10 10 10
-1178.384018 -981.545639 3110.834503 90 92 92
-1170.170307 -979.920387 3103.787613 59 61 62
-1169.817829 -979.738522 3103.529358 121 134 144
-1171.289062 -980.134773 3104.769516 127 130 134
-1169.845486 -979.694557 3103.570938 86 105 113
-1169.795036 -979.831600 3103.501129 62 63 64
-1175.005913 -980.056286 3108.174896 61 64 64
-1179.610157 -981.881046 3111.966705 78 85 89
-1170.302677 -979.715729 3104.040527 52 62 72
-1170.793438 -979.624367 3104.509544 157 180 198
-1172.969055 -979.765320 3106.469917 149 151 152
-1177.239132 -981.168461 3110.120773 138 142 147
-1170.703506 -979.647064 3104.509354 140 158 177
-1171.455574 -979.539204 3105.270576 79 99 115
-1171.268940 -979.614925 3105.120087 143 161 178
-1171.996784 -980.494404 3105.623627 139 144 147
-1170.110893 -979.683876 3104.077721 62 81 96
-1156.629848 -981.023788 3091.265297 222 235 241
-1174.028111 -979.566574 3107.750320 126 131 142
-1174.824142 -981.786823 3108.027267 172 180 184
-1170.714951 -979.683590 3104.686928 136 157 175
-1184.767628 -982.794762 3117.190361 40 46 57
-1172.603416 -979.724503 3106.478119 50 56 62
-1170.596504 -979.662132 3104.637146 93 116 131
-1177.249813 -979.830742 3110.866356 102 107 110
-1175.693417 -981.994438 3108.944321 99 110 114
-1162.533379 -980.344296 3096.988487 231 237 236
-1175.057697 -979.515648 3108.949280 114 123 141
-1174.562263 -979.632378 3108.529663 57 64 71
-1156.472111 -980.946159 3091.146278 91 85 45
-1176.414204 -979.579639 3110.311699 163 168 169
-1178.601551 -982.384300 3111.863899 30 31 29
-1177.376747 -982.420731 3110.747528 84 89 106
-1175.157738 -979.626369 3109.441948 124 133 144
-1177.220917 -979.935741 3111.404037 147 148 152
-1156.430340 -980.922127 3091.113091 225 234 239
-1173.615074 -979.699135 3108.001518 57 61 71
-1185.308552 -980.979919 3119.094849 83 92 95
-1156.503105 -980.968475 3091.169548 28 26 25
-1169.731522 -979.858112 3104.271507 58 83 100
-1174.895573 -979.843235 3109.330177 49 58 71
-1186.886120 -985.116768 3119.985008 106 112 131
-1173.750973 -979.961491 3108.282661 149 164 179
-1156.404400 -980.915833 3091.092873 165 156 113
-1167.559910 -980.035210 3102.288437 191 232 244
-1174.049282 -979.284000 3108.887863 236 241 240
-1173.751926 -980.002117 3108.592224 66 79 93
-1156.455040 -980.938625 3091.134453 131 121 73
-1156.378460 -980.865955 3091.076469 125 122 117
-1156.453133 -980.937862 3091.132736 84 79 40
-1156.407833 -980.916786 3091.094780 153 146 106
-1156.407833 -980.916786 3091.094780 153 146 106
-1156.535244 -980.959702 3091.229057 170 181 185
-1205.300617 -988.352299 3139.822769 156 162 179
-1156.447220 -980.935192 3091.128159 125 117 70
-1163.203239 -980.549335 3098.288727 70 72 76
-1195.001030 -990.599918 3129.938698 146 158 177
-1220.453644 -990.730095 3157.490540 131 135 153
-1220.453644 -990.730095 3157.490540 131 135 153
-1156.437683 -980.930901 3091.120148 153 146 106
-1208.386135 -988.392830 3145.389175 187 188 203
-1208.386135 -988.392830 3145.389175 187 188 203
-1167.054749 -980.564594 3102.583504 64 74 85
-1168.574142 -979.923916 3104.385567 167 196 199
-1168.574142 -979.923916 3104.385567 167 196 199
-1165.099621 -980.662346 3100.522995 139 150 164
-1156.454468 -980.939102 3091.135597 119 117 83
-1156.753635 -981.249619 3091.437149 206 210 214
-1156.361198 -980.861855 3091.053009 220 232 238
-1168.840790 -989.928055 3103.408623 58 66 85
-1161.955547 -980.808449 3097.362900 84 95 109
-1164.144516 -986.639786 3098.749733 66 77 96
-1160.004807 -980.839825 3095.175362 56 64 74
-1156.393909 -980.869198 3091.084290 42 43 43
-1156.419849 -980.922413 3091.103745 102 94 50
-1160.640430 -980.868721 3095.936775 149 161 176
-1159.417343 -980.885696 3094.554901 69 77 90
-1156.416607 -980.920315 3091.100311 82 77 45
-1156.414890 -980.919075 3091.098595 91 90 61
-1156.413174 -980.918026 3091.096878 105 105 79
-1156.322002 -980.806255 3091.010094 58 65 65
-1158.337784 -980.866241 3093.351555 79 87 100
-1156.411457 -980.917835 3091.094780 65 59 29
-1169.929790 -991.268349 3105.241013 195 209 217
-1161.852646 -981.299877 3097.434235 97 103 108
-1156.309509 -980.791092 3090.997314 81 81 82
-1156.387520 -980.845737 3091.078758 104 108 113
-1156.390095 -980.851364 3091.080475 167 177 181
-1157.863712 -980.877686 3092.833710 111 138 153
-1156.375599 -980.855465 3091.057396 41 42 40
-1156.402397 -980.913353 3091.084671 169 165 124
-1156.374168 -980.843735 3091.063118 92 90 89
-1158.332062 -980.885983 3093.454361 238 247 249
-1158.784580 -980.967236 3094.087601 231 236 235
-1157.610989 -980.976677 3092.611122 149 151 150
-1157.610989 -980.976677 3092.611122 149 151 150
-1158.865929 -981.022835 3094.216347 149 151 150
-1158.865929 -981.022835 3094.216347 149 151 150
-1156.406403 -980.873108 3091.089439 53 49 48
-1155.893135 -980.072880 3090.475273 218 230 234
-1157.100582 -981.099892 3091.969872 216 224 223
-1156.369305 -980.840683 3091.041565 152 164 168
-1156.361866 -980.806255 3091.046524 85 85 85
-1156.382465 -980.918598 3091.106224 61 82 102
-1156.528950 -981.044674 3091.223335 67 71 73
-1156.361389 -980.889893 3091.024780 207 199 155
-1156.448078 -980.935860 3091.125107 67 71 73
-1156.355762 -980.801964 3091.017151 178 190 196
-1156.417561 -980.932999 3091.120148 185 224 223
-1156.338310 -980.757523 3090.995979 170 180 187
-1156.343365 -980.783939 3090.996361 206 210 214
-1158.253288 -982.488251 3093.824387 206 215 218
-1158.254337 -982.477665 3093.844414 146 158 161
-1158.237743 -982.463741 3093.819427 146 158 161
-1156.396770 -980.940819 3091.102791 168 169 167
-1156.323528 -980.865097 3090.960884 204 198 163
-1156.287766 -980.890465 3090.901756 248 249 246
-1156.334496 -980.775070 3090.953636 169 180 184
-1156.290913 -980.826283 3090.892410 101 106 96
-1158.078575 -981.178093 3091.497803 3 44 91
-1158.080292 -981.284904 3091.471672 0 1 12
-1157.724190 -981.270981 3091.380310 159 162 170
-1158.061123 -981.291389 3091.465378 3 7 17
-1158.202553 -981.194305 3091.528511 21 38 54
-1157.867050 -981.172562 3091.445732 198 210 237
-1156.447601 -980.905724 3091.155052 140 145 143
-1158.036232 -981.304836 3091.459656 12 21 33
-1157.884884 -981.172657 3091.455269 208 227 248
-1157.568741 -981.241798 3091.352463 124 100 194
-1157.904625 -981.169605 3091.462708 217 226 236
-1157.895660 -981.179905 3091.460419 127 203 249
-1157.895660 -981.179905 3091.460419 127 203 249
-1157.946777 -981.176376 3091.475677 84 100 113
-1157.363701 -981.294823 3091.285515 91 91 165
-1157.543182 -981.243420 3091.348648 108 92 174
-1157.543182 -981.243420 3091.348648 108 92 174
-1157.369137 -981.299782 3091.286469 14 13 50
-1157.897663 -981.184578 3091.461182 51 130 181
-1157.911015 -981.173038 3091.468430 73 99 114
-1157.353878 -981.297207 3091.284752 176 183 206
-1157.552338 -981.237698 3091.355324 88 65 164
-1157.336903 -981.263351 3091.289520 26 22 104
-1157.539082 -981.237888 3091.351891 18 19 54
-1157.790184 -981.293488 3091.405678 46 52 57
-1157.901287 -981.183529 3091.466713 72 195 232
-1157.694721 -981.270981 3091.387177 131 134 143
-1157.688808 -981.272697 3091.384888 7 9 23
-1157.708454 -981.279373 3091.392136 135 140 142
-1158.080578 -981.292629 3091.493988 20 35 51
-1159.569073 -980.646515 3092.110825 49 52 63
-1157.264423 -981.245804 3091.288757 25 19 36
-1157.350063 -981.299019 3091.300583 32 31 51
-1157.402420 -981.278992 3091.322327 155 154 173
-1156.503201 -980.920219 3091.172600 110 116 135
-1157.402420 -981.278992 3091.322327 155 154 173
-1156.678867 -981.046295 3091.180038 164 175 182
-1157.443523 -981.292725 3091.335297 44 50 71
-1158.314991 -981.101799 3091.649437 93 106 122
-1159.012318 -980.976105 3091.896057 86 103 150
-1158.403301 -981.121826 3091.672325 40 51 64
-1158.399773 -981.125164 3091.671181 92 101 114
-1157.431793 -981.289482 3091.336250 101 106 124
-1158.556747 -981.110668 3091.724777 116 137 197
-1157.472801 -981.302547 3091.345406 97 104 121
-1158.986568 -980.975914 3091.894341 102 114 157
-1157.443237 -981.297112 3091.339111 109 113 131
-1158.885098 -981.006527 3091.855621 111 127 174
-1158.853054 -981.016350 3091.843605 32 50 89
-1158.921814 -980.981827 3091.874123 50 61 99
-1157.684135 -981.270504 3091.419220 83 88 104
-1158.830643 -981.022930 3091.835022 27 44 91
-1158.067894 -981.257534 3091.539192 87 50 42
-1158.993626 -980.972290 3091.898346 40 53 95
-1159.862232 -980.577755 3092.268181 116 119 123
-1158.848476 -981.020164 3091.842079 110 132 177
-1158.719921 -981.065655 3091.790390 56 73 115
-1158.745098 -981.035137 3091.806984 54 75 118
-1158.897400 -981.000042 3091.862869 66 82 123
-1158.093929 -981.248569 3091.550636 29 105 143
-1158.318710 -981.261349 3091.615677 36 110 147
-1156.413460 -980.907059 3091.144180 63 73 83
-1159.841728 -980.571747 3092.270660 52 59 62
-1158.562756 -981.103516 3091.736794 64 82 129
-1158.543682 -981.110287 3091.730881 125 144 204
-1157.355595 -981.307316 3091.313744 22 22 34
-1159.854126 -980.581760 3092.279053 118 122 128
-1159.329414 -980.879307 3092.040825 91 98 131
-1159.329414 -980.879307 3092.040825 91 98 131
-1159.821129 -980.576229 3092.274475 105 112 116
-1158.085823 -981.256485 3091.556740 73 35 31
-1159.882164 -980.582142 3092.296600 118 123 125
-1159.882164 -980.582142 3092.296600 118 123 125
-1159.926319 -980.561352 3092.316437 211 212 212
-1156.633568 -981.027222 3091.174507 167 178 185
-1157.917213 -981.297970 3091.496086 16 105 143
-1157.917213 -981.297970 3091.496086 16 105 143
-1157.989311 -981.286716 3091.521835 4 89 125
-1157.990932 -981.276131 3091.525650 8 87 120
-1158.022594 -981.274414 3091.535950 6 69 105
-1157.968998 -981.297112 3091.513062 5 94 133
-1157.991314 -981.256008 3091.531181 75 33 27
-1158.536720 -981.120396 3091.738701 71 82 100
-1160.839462 -980.137157 3092.727280 12 12 12
-1160.014820 -980.485249 3092.373466 16 12 8
-1160.694504 -980.148697 3092.680550 143 148 150
-1160.554409 -980.159950 3092.633629 23 22 21
-1157.951736 -981.288052 3091.511536 45 136 174
-1157.974625 -981.280327 3091.521072 57 143 180
-1158.159542 -981.250000 3091.588020 8 43 70
-1158.063126 -981.270123 3091.552162 151 131 130
-1158.004284 -981.272793 3091.533089 44 122 154
-1158.057594 -981.264114 3091.552544 150 129 128
-1158.057594 -981.264114 3091.552544 150 129 128
-1158.084869 -981.260872 3091.561890 123 111 110
-1158.084869 -981.260872 3091.561890 123 111 110
-1157.339764 -981.301308 3091.317749 126 130 145
-1157.499886 -981.298828 3091.369247 13 10 19
-1158.026600 -981.276226 3091.540909 8 85 118
-1158.020210 -981.280613 3091.537857 2 68 100
-1157.993317 -981.279659 3091.530037 2 71 107
-1157.893753 -981.305027 3091.492271 12 93 136
-1158.060646 -981.273651 3091.554070 81 36 26
-1159.283066 -980.889988 3092.051506 98 86 83
-1157.329655 -981.299305 3091.319084 12 12 18
-1158.959007 -981.003857 3091.919708 168 142 132
-1158.959007 -981.003857 3091.919708 168 142 132
-1158.799839 -981.050396 3091.856766 153 177 184
-1158.630562 -981.100655 3091.790771 192 206 176
-1158.630562 -981.100655 3091.790771 192 206 176
-1158.579922 -981.122875 3091.768837 193 206 172
-1158.579922 -981.122875 3091.768837 193 206 172
-1157.545376 -981.330776 3091.383934 7 4 17
-1157.852077 -981.308174 3091.489410 38 90 120
-1149.002552 -979.215717 3089.239502 67 146 167
-1158.041477 -981.278610 3091.560745 62 132 169
-1158.041477 -981.278610 3091.560745 62 132 169
-1158.512211 -981.126022 3091.755104 76 83 103
-1157.866001 -981.309891 3091.495705 81 168 206
-1157.468414 -981.199932 3091.412163 87 176 200
-1157.468414 -981.199932 3091.412163 87 176 200
-1157.865620 -981.312275 3091.498184 9 56 90
-1157.865620 -981.312275 3091.498184 9 56 90
-1158.106899 -981.268692 3091.589165 6 19 31
-1159.167576 -980.907631 3092.035675 112 102 100
-1159.167576 -980.907631 3092.035675 112 102 100
-1159.217930 -980.932903 3092.045021 97 93 90
-1159.217930 -980.932903 3092.045021 97 93 90
-1162.861156 -980.953503 3093.217659 88 86 85
-1158.049202 -981.282139 3091.567421 15 16 29
-1159.053993 -980.983067 3091.979218 88 120 122
-1159.001160 -981.005669 3091.955757 98 132 132
-1159.001160 -981.005669 3091.955757 98 132 132
-1158.986473 -981.015205 3091.948509 115 146 148
-1154.837036 -980.810452 3090.662003 114 170 171
-1158.846664 -981.048775 3091.893959 104 140 146
-1158.846664 -981.048775 3091.893959 104 140 146
-1158.779812 -981.072903 3091.865921 105 158 162
-1158.779812 -981.072903 3091.865921 105 158 162
-1158.716583 -981.089783 3091.840935 114 170 171
-1158.644199 -981.108570 3091.812134 119 169 172
-1158.609200 -981.115818 3091.799355 46 38 38
-1158.029747 -981.281757 3091.564560 67 146 167
-1159.036541 -981.006908 3091.971779 31 37 35
-1158.096600 -981.269932 3091.590309 51 123 144
-1158.237076 -981.259823 3091.639709 60 129 151
-1158.196831 -981.252193 3091.629028 60 129 151
-1158.574581 -981.129742 3091.788673 156 153 155
-1158.573914 -981.133747 3091.791916 15 11 20
-1158.587742 -981.134987 3091.796494 15 11 20
-1158.176517 -981.253624 3091.628265 36 119 147
-1158.077717 -981.273365 3091.591263 62 24 16
-1158.007431 -981.302071 3091.560555 54 145 170
-1159.140778 -980.962276 3092.035866 154 164 169
-1158.590698 -981.123066 3091.807938 205 208 212
-1157.978153 -981.296539 3091.555023 9 75 95
-1157.929420 -981.308365 3091.535568 6 77 101
-1157.948875 -981.304073 3091.543388 0 60 81
-1158.017731 -981.291294 3091.569901 2 58 80
-1158.017731 -981.291294 3091.569901 2 58 80
-1158.014870 -981.287766 3091.570282 1 60 82
-1158.013916 -981.290436 3091.571808 71 144 164
-1159.117889 -980.969715 3092.033386 84 93 97
-1157.736492 -980.799580 3091.626358 101 112 116
-1157.870388 -981.311226 3091.519356 6 86 111
-1158.613491 -981.120682 3091.823769 190 191 205
-1157.909870 -981.314468 3091.532516 4 70 92
-1157.909870 -981.314468 3091.532516 4 70 92
-1158.016396 -981.290531 3091.576195 1 61 81
-1159.168911 -980.952930 3092.062187 101 102 130
-1158.857727 -981.046677 3091.933823 193 198 199
-1159.120274 -980.982590 3092.041779 176 181 184
-1158.970165 -981.017399 3091.981125 200 204 205
-1159.074306 -980.989552 3092.024803 179 182 182
-1158.907318 -981.042004 3091.953850 206 212 212
-1159.025669 -981.007385 3092.004395 195 202 201
-1159.247112 -980.947018 3092.097664 102 105 131
-1158.674526 -981.102562 3091.858292 230 229 230
-1158.674526 -981.102562 3091.858292 230 229 230
-1159.091759 -980.986595 3092.035103 83 80 81
-1158.824539 -981.058598 3091.923332 58 53 54
-1158.704185 -981.100559 3091.870499 72 58 58
-1158.985901 -981.000423 3091.995430 80 65 66
-1158.784294 -981.071663 3091.906357 50 43 45
-1158.947563 -981.027889 3091.975021 64 49 51
-1158.660221 -981.106377 3091.854286 84 69 72
-1158.660221 -981.106377 3091.854286 84 69 72
-1158.753872 -981.089115 3091.891670 59 43 42
-1158.709049 -981.093311 3091.874886 65 50 49
-1158.709049 -981.093311 3091.874886 65 50 49
-1158.049965 -981.282043 3091.596794 87 35 20
-1158.750248 -981.080341 3091.893005 115 102 103
-1158.750248 -981.080341 3091.893005 115 102 103
-1158.623505 -981.118774 3091.839027 221 224 229
-1158.650684 -981.114197 3091.850281 105 86 84
-1158.835030 -981.066608 3091.927147 80 55 55
-1158.782387 -981.076813 3091.906738 223 216 215
-1157.593727 -981.328869 3091.427612 37 36 97
-1159.068680 -980.997276 3092.028999 192 185 185
-1159.068680 -980.997276 3092.028999 192 185 185
-1159.073544 -980.989933 3092.032814 93 72 70
-1159.073544 -980.989933 3092.032814 93 72 70
-1158.950043 -981.033039 3091.978264 223 221 222
-1158.950043 -981.033039 3091.978264 223 221 222
-1158.737278 -981.092644 3091.888428 227 220 215
-1158.737278 -981.092644 3091.888428 227 220 215
-1158.706760 -981.098175 3091.876411 109 84 82
-1158.674526 -981.113338 3091.861153 133 105 104
-1158.859634 -981.056404 3091.941261 210 214 216
-1158.760071 -981.086826 3091.898346 225 217 216
-1159.229851 -980.958748 3092.096710 100 103 131
-1159.060478 -981.018448 3092.021751 192 188 184
-1159.060478 -981.018448 3092.021751 192 188 184
-1158.905506 -981.044769 3091.960907 222 221 223
-1158.905506 -981.044769 3091.960907 222 221 223
-1158.625889 -981.118584 3091.843796 221 225 228
-1158.928871 -981.039047 3091.971016 69 54 55
-1159.031200 -980.978584 3092.023277 77 55 56
-1159.031200 -980.978584 3092.023277 77 55 56
-1157.543373 -980.878735 3091.532135 33 31 31
-1159.005356 -981.022072 3092.002869 69 60 60
-1159.005356 -981.022072 3092.002869 69 60 60
-1158.852577 -981.065655 3091.938782 96 63 58
-1158.723068 -981.096077 3091.885567 100 73 70
-1157.178402 -980.957222 3091.392326 64 49 51
-1158.028698 -981.291771 3091.592216 90 143 157
-1159.013176 -981.013584 3092.009926 59 53 54
-1159.013176 -981.013584 3092.009926 59 53 54
-1159.059334 -980.999088 3092.030334 61 52 53
-1158.100319 -981.281471 3091.619873 47 125 150
-1159.031773 -981.010151 3092.018318 210 209 210
-1158.534241 -981.147003 3091.807938 48 62 91
-1158.860397 -981.063461 3091.944313 68 52 48
-1158.689785 -981.106758 3091.872978 236 226 225
-1158.689785 -981.106758 3091.872978 236 226 225
