ply
            format ascii 1.0
            element vertex 57610
            property float x
            property float y
            property float z
            property uchar blue
            property uchar green
            property uchar red
            end_header
-1386.913586 669.335508 4416.173935 115 135 170
-1393.833065 682.005978 4411.735153 165 189 219
-1372.930050 664.016676 4432.360077 189 215 244
-1372.930050 664.016676 4432.360077 189 215 244
-1346.623898 639.630508 4463.575363 108 129 161
-1319.348335 607.547283 4473.686600 94 115 147
-1327.741623 621.466923 4471.086884 102 123 155
-1270.354748 560.055590 4513.407135 151 172 203
-1338.818264 645.839977 4444.828415 154 175 207
-1338.818264 645.839977 4444.828415 154 175 207
-1212.153053 503.076696 4558.422852 123 150 184
-1103.296852 380.573463 4655.324554 126 150 186
-674.076748 -318.680930 4473.934937 57 57 54
-1370.353985 689.334488 4404.010391 158 179 211
-1313.877106 627.721262 4454.703903 170 191 222
-954.344845 221.185589 4756.780243 142 163 194
-998.367405 271.853828 4719.227600 95 127 160
-1348.281384 673.322058 4417.930984 149 171 199
-1332.053757 661.531591 4425.993347 155 176 208
-1286.592579 613.597488 4467.568207 153 174 206
-1377.426243 713.278103 4381.421661 160 182 211
-1377.426243 713.278103 4381.421661 160 182 211
-591.416264 -872.059345 3293.293762 231 204 143
-1318.787479 670.676613 4424.816513 149 169 200
-1292.655373 640.989065 4436.449051 162 184 213
-1292.655373 640.989065 4436.449051 162 184 213
-1281.149197 630.455303 4444.301987 108 129 161
-1266.314697 620.791483 4452.959824 163 186 212
-1053.845692 381.484246 4613.237381 117 139 174
-1345.530033 711.892986 4381.952667 161 182 214
-1302.666092 664.944983 4412.269974 103 123 158
-1302.666092 664.944983 4412.269974 103 123 158
-1200.489044 557.738686 4502.999878 151 180 210
-1332.098103 705.135870 4384.206390 137 158 190
-1348.006916 722.735691 4364.714432 106 125 162
-1316.996574 698.959494 4398.753738 103 124 156
-1048.147011 401.761866 4606.478500 164 185 216
-1299.149990 677.892256 4398.432159 138 159 191
-1264.387608 645.935011 4434.830093 162 185 217
-1264.387608 645.935011 4434.830093 162 185 217
-1352.964783 741.057682 4356.059647 167 190 215
-1283.721828 667.553425 4413.764954 160 181 212
-1314.394760 707.074356 4382.521057 157 183 213
-1235.563087 633.265114 4443.487930 156 180 210
-1319.646454 716.667080 4354.405212 113 134 164
-1319.646454 716.667080 4354.405212 113 134 164
-1323.609734 728.555202 4359.982300 154 175 206
-1122.859001 517.290163 4527.812195 180 204 232
-1220.382309 622.714615 4443.006134 163 186 218
-513.206244 -892.770863 3300.085831 228 198 132
-777.894163 -591.191864 3118.724632 190 152 104
-1262.195778 676.656866 4406.425476 162 186 214
-904.659367 293.166327 4691.747665 110 126 149
-1221.839333 637.203455 4441.025925 105 127 161
-1221.839333 637.203455 4441.025925 105 127 161
-1254.288101 667.143822 4396.277237 105 127 162
-471.161699 -931.506920 3320.287323 182 136 85
-551.034927 -369.886541 4320.728302 190 222 242
-551.034927 -369.886541 4320.728302 190 222 242
-1283.355999 709.577560 4377.721405 163 186 212
-1283.355999 709.577560 4377.721405 163 186 212
-1292.224789 724.967098 4368.973923 106 130 160
-1238.241673 670.167398 4411.517715 161 185 215
-1055.736256 479.835081 4557.049942 98 160 205
-1295.937920 731.634855 4350.386429 148 172 200
-1304.290390 746.378279 4344.258118 108 132 160
-1255.210495 696.465206 4377.215195 161 185 215
-1211.654854 660.971880 4427.576065 152 176 206
-1163.599968 607.001972 4451.636505 166 190 226
-510.344791 -858.805275 3266.068268 199 151 93
-1306.163597 759.734917 4312.907791 109 133 161
-1285.303783 747.712326 4339.046860 170 192 219
-1285.303783 747.712326 4339.046860 170 192 219
-1032.863998 472.240067 4513.418961 73 97 121
-1265.659237 728.343725 4351.108932 161 182 210
-1265.659237 728.343725 4351.108932 161 182 210
-1213.586807 677.452850 4393.242264 99 122 154
-1292.018509 766.414070 4329.980087 147 168 196
-1292.018509 766.414070 4329.980087 147 168 196
-534.639645 -45.604256 4876.307678 149 182 208
-534.639645 -45.604256 4876.307678 149 182 208
-1079.939938 545.510817 4482.952881 114 136 175
-1027.558994 515.062475 4573.897171 146 175 205
-910.909462 377.457476 4618.340683 155 183 214
-801.493454 224.567533 4619.591522 105 122 143
-1067.524815 534.866762 4481.786346 174 202 234
-1234.499454 711.397552 4354.656982 111 134 166
-1234.499454 711.397552 4354.656982 111 134 166
-1297.475910 784.194326 4314.426804 106 130 158
-1276.201630 762.414312 4326.153183 155 176 207
-1264.091206 754.708767 4330.132675 143 166 198
-952.799129 431.371355 4563.603592 167 193 223
-1212.970543 703.460312 4368.255615 176 202 232
-1237.050438 729.876804 4349.386978 177 201 225
-1237.050438 729.876804 4349.386978 177 201 225
-806.500340 272.228384 4643.241882 108 128 153
-1265.432358 764.876699 4323.846436 110 131 163
-510.220242 -807.934284 3242.089081 185 137 87
-1042.222786 543.743992 4493.103409 107 131 167
-1165.407753 672.201157 4391.345978 179 206 235
-1261.078835 774.421692 4304.910278 179 199 223
-1227.949905 743.721008 4332.570267 106 129 161
-511.990929 -90.705377 4658.116913 146 181 210
-1237.052536 753.540134 4317.918396 133 163 192
-1245.398521 769.367456 4309.005356 163 187 215
-1068.080616 588.872051 4439.344025 169 194 227
-1068.080616 588.872051 4439.344025 169 194 227
-487.777042 -13.705455 4845.911026 92 120 144
-487.777042 -13.705455 4845.911026 92 120 144
-984.107113 507.827377 4504.757309 65 86 115
-1170.153999 702.503538 4368.865967 149 173 206
-738.406992 -544.256735 3049.615860 187 147 93
-1039.995384 574.539185 4458.373260 99 123 159
-1039.995384 574.539185 4458.373260 99 123 159
-727.626276 -550.920296 3057.385635 235 198 140
-1010.123920 554.753351 4478.440094 68 97 122
-1261.792088 806.293201 4284.237289 171 196 222
-1193.364906 742.897272 4332.162857 149 173 203
-1193.364906 742.897272 4332.162857 149 173 203
-1224.385071 773.811054 4306.771469 158 186 216
-783.294582 333.172250 4628.765106 37 63 82
-1046.543217 599.795675 4434.611511 168 190 225
-1204.177570 758.415413 4317.454529 159 186 213
-968.950176 521.844053 4485.659027 150 171 202
-1105.733395 658.984041 4384.164429 101 124 162
-1138.721561 695.558786 4365.460587 106 130 166
-1233.056259 793.069696 4289.376831 172 199 226
-1233.056259 793.069696 4289.376831 172 199 226
-1233.056259 793.069696 4289.376831 172 199 226
-1010.253716 572.789431 4443.078613 129 158 189
-1048.131657 616.379595 4418.671799 100 122 163
-1234.909534 803.516102 4284.184647 113 140 166
-1142.017460 712.258387 4348.799896 157 183 213
-1219.016838 789.736795 4283.920288 152 179 208
-1203.640747 778.943443 4301.500702 112 134 162
-1203.640747 778.943443 4301.500702 112 134 162
-873.318958 450.456715 4526.730728 173 204 237
-873.318958 450.456715 4526.730728 173 204 237
-839.748573 415.337896 4545.971680 163 194 225
-839.748573 415.337896 4545.971680 163 194 225
-937.437057 514.415169 4478.957367 99 125 161
-1160.999298 742.601919 4325.164795 157 183 207
-1221.210098 798.121214 4274.386597 111 138 165
-1184.134197 783.126783 4293.755341 146 173 200
-1127.974129 730.818033 4333.276367 174 201 227
-1194.383812 796.506786 4276.490021 156 180 208
-1187.333965 791.472006 4274.069977 107 134 161
-1201.609612 812.718678 4272.252655 108 129 160
-1149.814701 768.064260 4301.869202 151 178 205
-1205.428600 824.345207 4254.674911 169 196 223
-1151.416302 785.920143 4280.313110 152 179 205
-1212.194443 853.694725 4235.140991 147 171 195
-734.017897 -452.215099 2982.733536 157 117 65
-743.679285 -439.536810 2980.157089 136 107 62
-727.983999 -452.315331 2980.594826 239 203 148
-816.314602 497.941160 4468.051529 103 127 163
-1169.146919 844.077206 4236.928558 160 189 218
-1061.032581 741.578007 4300.652313 160 187 215
-849.879360 545.760202 4442.742157 147 171 207
-954.716015 658.463001 4395.441818 74 105 131
-656.019688 -507.095766 3009.689522 238 193 125
-1157.416058 851.718998 4226.408005 101 125 155
-887.408829 598.154736 4400.472641 102 127 159
-1162.470055 862.025452 4219.309998 155 179 204
-1106.006050 812.288475 4245.155716 205 235 254
-1061.071110 788.353062 4264.736176 104 131 158
-1069.590664 802.530956 4251.842880 161 190 217
-1069.590664 802.530956 4251.842880 161 190 217
-1069.590664 802.530956 4251.842880 161 190 217
-999.041557 734.728527 4285.676575 99 125 155
-999.041557 734.728527 4285.676575 99 125 155
-1150.586319 878.305149 4192.249680 142 167 192
-1150.586319 878.305149 4192.249680 142 167 192
-423.129082 -684.912109 3120.132828 186 134 88
-707.996321 -412.803459 2939.341164 226 185 133
-439.824390 -656.888580 3105.363464 223 189 118
-1154.056644 896.294880 4176.014328 94 116 144
-1154.056644 896.294880 4176.014328 94 116 144
-701.993990 -415.393162 2942.384720 235 203 151
-816.889954 593.890190 4383.655167 179 205 239
-1099.197388 852.881241 4208.130646 144 168 196
-1103.020477 864.801979 4209.572601 81 104 136
-1068.260098 834.845066 4224.025345 90 116 141
-421.268559 243.388128 4615.321732 173 195 230
-1130.103493 890.918636 4178.323746 133 154 185
-442.465496 -639.803028 3089.401817 224 190 121
-883.176708 672.516203 4330.660629 136 160 191
-1058.896065 830.461979 4220.095062 97 119 147
-1143.848038 910.519600 4169.274139 161 185 213
-859.536743 665.726995 4331.314087 141 165 193
-971.084785 771.471691 4263.151169 95 118 150
-664.976358 496.696854 4439.417267 130 154 182
-1140.004349 923.389530 4152.246857 100 123 154
-708.233738 -378.439760 2914.914513 212 184 147
-1126.155090 917.520809 4161.824036 93 113 147
-1126.155090 917.520809 4161.824036 93 113 147
-449.800968 -608.662558 3056.239700 215 179 119
-455.402374 319.632888 4544.823837 81 105 123
-1103.903484 904.469776 4162.710953 151 172 203
-299.051952 -735.199976 3140.614510 184 135 81
-1074.753666 885.867977 4174.705124 139 160 191
-950.865936 784.337854 4257.269287 133 156 188
-849.978447 694.308138 4302.941132 148 170 198
-849.978447 694.308138 4302.941132 148 170 198
-942.823696 776.707268 4246.458054 93 116 148
-942.823696 776.707268 4246.458054 93 116 148
-702.257633 560.400867 4379.048538 57 80 100
-804.024601 653.095865 4321.599197 136 161 193
-1053.750992 879.468822 4182.149887 140 164 192
-1105.667305 923.551655 4148.160553 140 162 190
-1124.398422 943.151188 4141.609573 93 115 147
-709.944773 -352.934670 2896.464920 200 160 111
-959.936142 802.201557 4234.512329 96 118 153
-1080.573940 911.764812 4167.477798 103 124 155
-737.953424 -311.987019 2899.832535 109 85 55
-1118.474960 941.826248 4137.714767 89 110 142
-1108.581638 936.578083 4146.545792 92 113 145
-228.955483 169.686270 4655.833435 172 200 228
-1067.425156 901.321316 4160.815811 156 180 210
-989.175034 847.978115 4201.898193 95 117 153
-380.610061 308.791924 4538.608932 161 189 220
-676.890850 -370.721316 2895.169640 188 137 86
-1092.542744 938.440704 4133.963013 158 180 208
-1092.542744 938.440704 4133.963013 158 180 208
-1043.612957 898.421955 4159.916306 134 157 189
-1099.511147 949.054718 4120.825195 142 164 192
-166.750240 147.808599 4662.837982 120 151 176
-1082.033062 950.267982 4127.903366 93 112 150
-840.248775 735.771084 4243.328857 108 132 164
-375.230145 345.500970 4518.161392 114 137 169
-375.230145 345.500970 4518.161392 114 137 169
-583.129168 -430.004692 2929.529953 226 183 133
-1067.155838 942.465401 4122.890854 146 167 203
-326.432800 313.186860 4541.748047 108 136 160
-400.297260 371.447277 4491.969299 164 199 242
-704.990435 -314.580202 2866.834259 201 164 116
-579.586506 -426.030684 2928.475380 182 133 83
-346.342874 335.867548 4521.537399 173 203 228
-1078.303719 959.675312 4108.902359 158 182 211
-713.098812 -299.706268 2867.052269 163 133 88
-1037.720108 928.516102 4135.017395 150 171 203
-1037.720108 928.516102 4135.017395 150 171 203
-518.793535 -474.103117 2959.653473 189 140 82
-801.832962 728.281641 4254.261398 81 98 143
-277.457333 289.886737 4547.585678 143 173 200
-513.328743 -472.224808 2956.422043 225 192 146
-846.077919 772.287226 4221.031952 136 157 189
-846.077919 772.287226 4221.031952 136 157 189
-219.273663 -702.811623 3136.831474 191 138 87
-1052.039242 949.306774 4106.270218 93 114 154
-1058.930206 965.774441 4112.255478 141 167 192
-1082.100773 980.072212 4088.520432 174 195 223
-507.898235 -470.104504 2951.119232 198 141 79
-927.983952 861.954498 4182.007980 61 85 109
-927.983952 861.954498 4182.007980 61 85 109
-1015.749359 938.941097 4132.732391 128 161 190
-772.292280 728.448057 4250.764465 131 153 188
-831.134129 785.049868 4216.984177 137 159 190
-727.923727 -247.236300 2862.504959 115 85 50
-359.834909 393.015575 4464.236832 112 136 167
-1027.130604 964.469337 4119.941330 135 167 196
-725.947428 -242.986917 2856.221008 126 100 60
-1020.621109 967.570591 4111.718369 139 171 197
-1006.986332 960.333920 4122.279358 54 78 96
-1050.509834 995.130920 4079.056168 123 154 181
-1031.917667 988.893795 4095.961761 131 163 186
-1022.808361 980.470562 4092.895126 85 111 135
-497.576094 -437.810850 2927.342796 235 187 129
-568.134451 -375.373745 2889.655876 230 189 138
-1025.437641 994.722748 4084.499741 134 159 182
-289.794898 392.067719 4462.123108 88 115 135
-650.254107 688.896275 4274.550247 59 83 106
-661.858845 -293.187165 2833.652496 239 202 149
-1023.995209 1008.339977 4087.542343 52 75 97
-618.894386 -319.820642 2845.512962 228 191 135
-618.894386 -319.820642 2845.512962 228 191 135
-807.936859 828.295803 4165.011597 133 157 187
-917.622471 917.266941 4107.800674 151 172 204
-788.108969 817.667866 4175.977325 79 96 138
-727.363825 768.488455 4203.900528 136 159 191
-1002.188110 989.507675 4055.585480 69 92 118
-618.894196 -302.916527 2835.976601 189 141 90
-990.648460 999.617767 4058.221817 165 187 215
-872.652149 904.510117 4108.272171 151 177 207
-652.787352 -267.698383 2810.131836 246 206 147
-872.727203 917.721272 4095.240784 139 162 194
-998.024940 1020.252800 4026.987457 142 166 196
-711.257601 545.014763 3809.888458 35 36 36
-717.362547 822.516537 4151.629257 128 149 185
-717.362547 822.516537 4151.629257 128 149 185
-701.806593 815.155411 4162.055969 75 97 133
-622.088432 761.030054 4210.134125 101 128 150
-941.017818 1003.096485 4038.665771 150 172 205
-916.697979 995.014858 4038.129044 143 167 197
-993.710995 1058.080292 4000.852585 144 168 196
-961.050224 1032.073116 4010.528564 145 168 200
-934.612370 1013.818836 4023.336411 95 118 156
-901.328087 994.752407 4038.433838 94 115 153
-68.969625 359.654117 4437.630844 88 112 134
-981.063938 1060.626030 3999.413300 93 114 150
-658.337688 815.691757 4154.596329 98 122 146
-310.434175 557.880020 4328.579330 106 127 149
-234.961700 493.706751 4341.213608 141 168 195
-754.626179 909.857082 4092.658234 92 113 150
-281.756401 552.914143 4317.065048 129 154 179
-277.921438 545.329285 4311.674118 117 142 168
-361.247253 618.823671 4278.265762 65 93 117
-659.145260 844.189739 4137.150192 41 59 82
-725.233936 894.293976 4104.230118 112 140 170
-341.382313 -424.711657 2891.493797 172 128 81
-956.420135 1069.515610 3976.511383 142 166 199
-849.880600 990.732574 4025.625610 96 121 155
-766.256380 933.029842 4068.233871 147 166 203
-194.067323 501.346636 4331.871796 146 173 200
-320.836449 609.269810 4275.880432 17 32 48
-685.466433 890.341282 4111.144257 92 114 139
-938.747692 1073.466301 3970.078278 94 115 154
-124.666166 467.477131 4337.629700 150 176 205
-920.289898 1066.832542 3974.121857 165 191 221
-920.289898 1066.832542 3974.121857 165 191 221
-920.289898 1066.832542 3974.121857 165 191 221
-933.759975 1074.813461 3959.840775 93 115 150
-938.423729 1084.598446 3957.645035 144 167 199
-703.045511 923.650074 4078.975677 47 67 92
-25.018087 422.968102 4367.610550 140 164 192
-919.654655 1084.524250 3961.474991 178 201 233
-837.336254 1026.537037 4000.781250 90 110 151
-910.968208 1078.186798 3963.608551 96 115 152
-943.495083 1103.263855 3942.126465 146 169 200
-694.486189 -82.743973 2775.195312 77 65 51
-880.545998 1065.078259 3963.025665 153 178 208
-611.073208 889.709568 4066.664886 111 133 161
-674.358368 -232.075500 2532.269096 172 128 81
-721.689653 985.170937 4009.237289 144 164 199
-793.391323 1045.494652 3986.906052 150 177 203
1778.570938 -898.699665 4951.813507 228 224 208
-803.110313 1057.693481 3983.761215 50 74 102
-735.765839 1008.927155 3989.865112 157 179 211
-882.489300 1117.584419 3925.543594 88 107 149
-670.493174 965.771103 4002.913666 137 158 190
-699.460793 1003.636169 3981.592941 97 119 154
-686.267376 1000.312614 3988.164520 163 182 215
-699.836588 1033.199787 3959.863663 92 113 148
-636.159134 992.831898 3984.738159 166 190 218
-865.113544 1160.455227 3897.898102 46 76 100
-221.807432 708.258152 4143.655014 131 153 181
-757.154465 1078.260422 3928.691483 144 169 201
-868.994141 1170.838356 3894.348526 56 81 103
-868.994141 1170.838356 3894.348526 56 81 103
-691.062546 1044.626141 3953.371429 146 167 196
-857.097626 1164.979839 3891.386032 112 164 202
-866.010380 1170.723534 3886.846924 37 69 97
-866.937923 1176.278591 3880.836487 88 139 195
-708.986139 1066.373730 3929.935837 145 170 202
-651.054859 -58.741754 2671.342659 150 120 93
-340.656543 844.595432 4089.070129 18 108 119
-736.374092 1090.990734 3908.617783 151 179 210
-771.107960 1152.904415 3870.309830 98 121 154
-782.909060 1164.303303 3860.634232 157 181 209
-674.666834 1098.748589 3887.958527 150 175 207
785.534573 -831.683826 3304.441452 160 147 115
1225.739002 -1018.864346 3571.273804 230 218 209
-740.374756 1157.932758 3854.496765 99 121 157
-751.816130 1165.439034 3847.580719 147 171 201
582.006693 -760.434246 3135.954285 237 239 236
-720.401907 1152.632427 3855.187225 166 192 222
-517.252588 1040.547371 3949.714279 37 56 77
-658.838844 1116.583633 3877.620697 149 186 218
-754.157162 1172.230911 3835.091400 103 128 160
-572.010565 1070.596027 3918.553543 44 68 92
-757.168484 1181.238079 3836.815262 152 180 207
-637.357569 1107.635403 3871.582413 136 157 185
-655.965853 167.743421 2790.433121 84 75 66
-75.055128 -490.699482 2656.343651 249 244 242
-719.972801 1182.802582 3810.604858 64 87 109
-765.915203 1223.962593 3797.202301 86 113 140
-995.689678 -42.911014 2154.100609 172 128 81
-752.986526 1230.800152 3774.593735 124 152 176
-555.796623 1113.297653 3842.530441 62 79 112
998.098469 -750.635576 3271.942139 201 204 196
-637.242794 379.847240 2904.583168 69 60 53
-591.013908 17.646119 2571.044540 224 206 189
-584.490871 23.289266 2566.676712 224 206 189
-592.002773 28.773651 2562.441063 156 137 120
681.381989 -620.835590 3047.549629 201 204 196
-599.243069 65.154135 2543.477058 127 102 82
-599.243069 65.154135 2543.477058 127 102 82
-247.026253 -143.645728 2635.755920 205 210 211
521.424866 -303.178215 3092.909050 162 146 114
-617.110872 1292.222977 3709.621811 76 100 124
-653.803444 1313.034534 3693.120575 42 65 89
-535.030127 39.415959 2531.824875 182 171 163
-620.312834 139.007390 2552.681160 77 61 49
-581.902504 84.129560 2518.415833 175 159 143
438.707304 -463.011169 2787.754059 251 251 250
-150.059092 -114.165151 2592.774582 190 195 193
-482.848644 67.622972 2495.764732 226 228 222
-598.636293 1373.709106 3619.845963 33 53 70
-500.426197 -80.657184 2324.338341 235 240 237
-472.950649 73.954833 2490.026283 180 174 160
-549.045897 120.697773 2472.324753 192 166 143
-588.719130 1379.540825 3610.033035 78 100 118
-820.016098 145.868230 2291.642761 92 51 22
-225.002670 -48.173863 2547.530174 242 250 251
-217.139888 -51.695389 2549.216270 187 193 194
-462.202358 77.223927 2482.777596 238 243 239
-442.184973 69.802904 2485.779572 235 239 235
-425.751209 63.909477 2489.877129 224 241 241
-4.373206 -115.478206 2617.522621 244 253 254
-539.349079 138.953292 2469.080925 156 129 108
-413.287640 64.343280 2484.919930 173 165 157
-312.712407 21.165580 2507.444382 178 181 181
-340.657830 44.520420 2491.653061 191 190 192
-358.662105 56.142187 2484.033585 156 152 156
-503.012180 142.178822 2457.051277 144 103 78
-562.816906 1423.436451 3569.851685 130 149 182
-320.600939 45.884436 2485.012627 193 199 202
-275.714636 -41.472715 2430.575180 220 221 217
-45.141342 -124.859715 2469.499588 193 197 184
-322.614026 51.238048 2481.995964 241 251 251
-329.330492 54.485363 2480.158997 210 216 216
-513.583088 166.717553 2453.868866 169 142 114
-307.068229 46.605131 2483.205795 188 190 190
-300.227165 46.377137 2482.213402 242 247 251
-289.063597 40.195176 2483.797073 241 250 249
646.020937 -243.731475 2824.660873 221 224 211
-202.324414 4.289831 2503.054237 167 167 168
-266.534996 37.557104 2483.965683 244 254 253
195.398378 -217.534828 2547.249222 193 197 184
-506.529188 1438.945389 3556.882477 111 140 164
-490.302372 174.868107 2448.931885 120 107 78
-454.101324 1386.287880 3537.024307 104 110 105
-478.001976 1433.605766 3559.838104 39 60 80
-519.692278 472.201490 2684.749413 88 79 68
-519.692278 472.201490 2684.749413 88 79 68
-535.806704 1447.536755 3532.128906 127 145 176
85.128826 -195.656526 2467.668724 193 197 184
-191.933119 24.509577 2485.141182 187 192 192
-470.036364 636.927176 2846.083069 115 109 102
-347.611403 102.461302 2452.225876 231 234 226
-475.976467 276.015353 2521.906853 93 82 65
-475.058126 274.004531 2519.732285 86 76 58
-498.777819 1454.331589 3533.845520 134 154 185
-498.777819 1454.331589 3533.845520 134 154 185
-56.233954 99.111426 2542.585754 177 154 117
-261.218405 1331.997967 3551.257706 136 157 185
-497.105122 1465.605545 3522.306824 146 165 193
-417.251873 537.989044 2764.153481 135 134 130
-472.427511 1457.948971 3525.564194 69 92 119
-436.485291 209.198451 2465.174294 89 80 65
-430.514908 226.879883 2479.417229 102 88 76
-163.590384 1309.209442 3571.639252 167 191 216
-363.462734 148.586786 2446.504974 124 94 50
-207.674265 1330.751324 3558.691788 80 102 138
-331.698298 1398.929501 3532.604218 144 170 199
-387.763882 180.134749 2452.159119 143 123 88
-112.522745 1293.752289 3572.881699 139 160 191
-397.314072 203.943205 2465.813255 112 96 79
-497.050667 1485.236359 3505.550003 101 123 158
-140.577781 1312.778568 3560.503769 157 177 213
-121.150911 1308.172798 3565.326691 135 157 198
-255.779624 1369.169521 3537.474442 125 150 181
-206.703568 1350.916290 3549.370956 89 111 147
-269.191551 1377.892113 3535.268402 127 151 179
-493.513870 1500.687790 3495.636368 96 119 159
-332.896399 178.309762 2459.600449 139 125 97
-267.422128 123.112726 2450.331497 167 143 96
-303.544807 1420.277500 3531.686020 146 174 204
-298.973250 1402.396774 3516.737747 89 113 143
-298.973250 1402.396774 3516.737747 89 113 143
-320.392656 173.351669 2459.552574 84 67 40
-190.786624 1359.126949 3534.704208 141 164 196
-388.606000 1468.821049 3512.454987 49 74 95
-114.086032 1332.486248 3544.976044 168 195 222
-485.954762 1509.830856 3481.938171 170 197 226
-225.392270 1382.858372 3523.329926 88 111 143
-456.605530 1504.707718 3482.093048 150 176 211
555.684853 -251.401997 2572.171402 164 145 114
555.684853 -251.401997 2572.171402 164 145 114
118.934405 1260.591698 3593.686676 86 109 141
117.007542 1259.511375 3591.247177 86 109 141
112.765098 1181.138897 3520.640564 110 131 162
194.201052 1218.280315 3596.339417 137 160 186
-104.256213 1338.770103 3528.942871 98 118 160
-447.095156 1502.791214 3472.914886 109 129 172
-447.095156 1502.791214 3472.914886 109 129 172
-269.852495 1419.012642 3500.033188 142 164 192
-269.852495 1419.012642 3500.033188 142 164 192
-162.998855 1374.089622 3506.659698 133 154 188
-162.998855 1374.089622 3506.659698 133 154 188
-377.158761 1486.576462 3482.206726 89 110 148
-236.183286 1418.128490 3493.964386 123 147 169
66.173792 1303.581142 3562.678528 88 112 136
-110.992730 1372.926235 3508.641815 155 179 210
-239.156795 1430.304527 3486.523819 43 81 89
348.653817 1193.044567 3597.425461 124 147 173
-371.465468 1503.863907 3463.054657 105 130 162
-387.427664 1511.681557 3460.494232 101 123 164
-394.378996 1517.755699 3460.602188 95 117 157
-448.552847 1549.206924 3456.800842 125 152 190
-105.165601 1382.459641 3492.002869 176 198 226
-139.263082 1399.499798 3484.664154 131 153 189
-139.263082 1399.499798 3484.664154 131 153 189
-402.927685 1531.200314 3452.593994 149 175 212
504.495955 1138.211346 3603.949738 119 140 168
-212.308526 1433.679581 3469.815826 63 108 121
-149.260175 1408.690071 3481.668472 143 166 198
-114.283156 1389.480972 3479.849625 102 124 160
-235.108972 1445.078087 3461.768341 13 52 55
-235.108972 1445.078087 3461.768341 13 52 55
-419.754076 1549.482822 3447.545242 180 213 239
-306.180143 1499.539471 3462.645340 92 113 133
-75.297719 1388.477993 3485.572815 103 125 160
-243.895531 1447.620678 3446.145248 34 78 83
-228.710198 1458.655357 3452.654266 107 163 166
-156.348634 1429.417229 3464.774704 148 175 205
104.896605 1326.173782 3512.552643 167 190 217
592.661762 1122.927666 3588.229370 36 55 77
26.275545 1360.451698 3489.471436 70 92 119
80.564266 1345.798683 3496.918488 148 172 196
-71.287817 1403.129196 3466.182327 93 114 153
-372.573090 1548.808002 3430.978775 165 188 216
-406.515026 1568.379402 3428.468323 179 212 245
-236.777163 1481.653214 3438.963699 71 125 126
-266.668248 1484.813118 3423.480606 136 197 199
611.483431 1139.356232 3582.184982 96 117 144
320.178509 1263.438511 3528.601837 143 172 199
-213.163662 1473.230171 3430.400848 106 163 165
-236.723924 1487.736988 3426.523209 52 107 110
-321.152496 1537.030125 3424.299240 132 158 186
-367.810082 1561.695480 3420.898056 155 182 214
602.098942 1193.628025 3601.043701 42 59 78
267.918324 1286.962032 3508.632660 108 131 157
-92.670172 1431.464195 3447.732162 145 167 198
-240.558100 1492.768669 3423.700714 131 191 193
198.160028 1331.430626 3506.986618 53 75 93
-251.438022 1511.181164 3430.044937 123 187 187
-126.352847 1448.986149 3439.640427 86 109 147
-258.658028 1504.924393 3419.536209 123 187 187
-246.734977 1502.597904 3422.664261 76 136 138
-398.323250 1587.824631 3413.887787 183 212 243
-398.323250 1587.824631 3413.887787 183 212 243
143.089902 1360.263824 3492.335892 55 79 99
-51.993561 1426.680756 3447.021866 138 159 192
-51.993561 1426.680756 3447.021866 138 159 192
-252.370429 1499.623108 3408.106995 73 137 138
-75.316805 1434.383678 3440.205765 133 155 184
-267.246771 1507.689190 3405.373001 117 179 179
139.511240 1364.384556 3484.609222 120 144 164
-142.419446 1470.800400 3432.837296 136 166 195
-328.903365 1559.287262 3411.413956 138 160 194
-254.846978 1509.496212 3407.035446 58 117 119
-192.624366 1489.686966 3418.628311 40 86 99
-378.653169 1588.502407 3404.339218 182 216 245
510.159254 1226.598167 3539.510345 50 74 94
510.159254 1226.598167 3539.510345 50 74 94
324.402094 1295.528603 3498.050690 133 154 181
205.152822 1348.584366 3483.206177 32 54 72
205.152822 1348.584366 3483.206177 32 54 72
-272.295856 1532.418251 3399.259949 95 151 151
228.402042 1334.801483 3478.139877 188 213 238
-281.688237 1530.712414 3392.530060 33 88 89
-78.046983 1463.877583 3433.376694 66 90 110
-282.543039 1517.759705 3376.290131 49 109 110
360.142684 1292.379475 3493.819809 130 152 180
-251.545572 1524.708176 3391.576004 132 203 206
288.322544 1318.399620 3479.674530 153 172 200
288.322544 1318.399620 3479.674530 153 172 200
178.458178 1365.080452 3462.414932 133 155 183
-68.359631 1467.745304 3428.509140 107 134 155
-84.437317 1471.720982 3420.603180 117 141 161
-259.310746 1544.874954 3390.119171 68 124 135
-20.318131 1451.039600 3423.767853 144 170 211
-215.938592 1529.939938 3394.254303 122 177 180
-108.347011 1491.287231 3411.827087 57 78 98
-42.530140 1460.492802 3415.285492 63 86 107
-42.530140 1460.492802 3415.285492 63 86 107
-215.392566 1537.263393 3393.159103 70 106 123
-220.116639 1539.725876 3392.732239 121 156 171
-84.821147 1477.546692 3400.917053 57 81 99
-11.896553 1452.790260 3410.245132 87 110 136
-303.875470 1588.861752 3382.689285 51 88 106
592.699718 1223.414803 3499.849701 135 157 185
-181.846750 1528.547478 3389.127731 125 156 177
-237.181664 1566.342354 3393.607712 107 133 170
277.910018 1348.058605 3454.341507 101 123 153
277.910018 1348.058605 3454.341507 101 123 153
-239.023328 1565.109062 3391.434097 107 133 170
-291.493225 1580.247593 3379.034805 122 172 192
260.560799 1351.998234 3447.776794 157 179 208
-32.713106 1471.538162 3406.254196 132 155 193
144.650829 1402.248001 3431.412125 165 188 220
-345.691061 1615.965462 3378.598785 162 189 221
-70.291805 1486.450672 3400.437164 139 163 198
222.740817 1376.618576 3438.916779 142 164 195
-215.316963 1547.997284 3377.362823 125 152 172
290.914965 1348.324108 3446.038055 144 168 198
-264.521170 1581.268120 3378.797150 113 141 171
980.463505 1078.911877 3539.175415 171 197 227
165.459168 1407.230473 3428.168106 151 175 205
-189.029145 1541.363811 3375.866699 139 163 184
-218.589854 1554.051399 3372.178268 70 97 117
-329.905653 1620.944595 3370.098114 183 213 242
1342.647171 953.083324 3580.153275 90 121 146
36.197695 1451.393700 3394.357681 87 110 136
323.380280 1357.245827 3438.633347 154 178 209
-242.388535 1583.690453 3366.658783 107 137 164
-43.901706 1491.470814 3381.098557 168 195 222
687.862396 1218.115425 3485.887909 138 161 193
372.589231 1338.572884 3439.245605 152 175 205
508.280849 1291.074181 3457.401657 110 131 159
-304.886198 1614.212418 3356.337738 180 210 237
362.474251 1350.207329 3439.109039 142 164 199
-100.536036 1518.735027 3365.051651 143 173 192
-245.703673 1597.244263 3360.642242 156 186 211
-20.719582 1494.134140 3373.102188 169 194 226
-328.844380 1646.755409 3358.823776 76 100 128
-287.837625 1623.970604 3358.051300 174 201 236
1460.143185 903.382874 3544.786453 104 123 155
268.112826 1395.135880 3417.056274 100 122 158
553.920507 1293.863106 3460.015869 145 169 197
-215.671253 1582.275677 3355.340195 85 114 135
-276.232600 1615.794563 3354.581833 167 197 222
-164.891827 1561.999512 3358.264542 126 151 171
-199.955201 1577.274704 3354.481888 78 105 125
344.918942 1365.215588 3420.724869 143 165 201
-314.940095 1641.790581 3352.547073 137 158 199
290.910864 1387.319756 3411.026382 97 119 154
-282.173443 1625.802612 3352.555847 196 227 250
-274.628997 1619.124603 3347.491455 124 154 179
368.564725 1362.682819 3419.010925 143 168 207
-291.601396 1633.204079 3350.007629 179 204 244
1396.935558 951.186275 3533.369446 74 103 118
1497.712421 916.009140 3548.379898 167 187 218
-214.605641 1588.633347 3347.030258 68 97 118
-296.785498 1638.750839 3350.193787 153 177 216
-285.759687 1633.803940 3349.956894 128 151 184
-88.935906 1533.032703 3354.510117 93 121 138
-307.368660 1647.079659 3348.140335 160 181 220
587.121677 1283.259201 3441.336823 149 172 204
195.516753 1433.390522 3391.057205 149 174 205
-234.381914 1602.857590 3340.331268 89 120 143
276.835561 1416.140366 3402.639771 107 130 162
-307.684565 1641.700935 3333.756638 83 106 137
-23.933367 1516.478157 3354.533386 112 143 164
782.839537 1238.814831 3473.115921 88 115 136
-289.687371 1644.386482 3341.062546 154 176 211
-11.352213 1511.723995 3353.088379 182 212 239
-105.094516 1545.831013 3340.473938 96 126 145
218.624449 1432.227707 3384.537888 147 169 196
-182.333088 1586.427212 3335.988235 150 179 200
-198.498917 1601.382446 3339.310455 97 126 147
567.688847 1309.609890 3428.521347 147 172 204
239.511728 1431.855583 3384.994507 146 170 200
994.326305 1149.338818 3474.230576 104 131 158
994.326305 1149.338818 3474.230576 104 131 158
-285.466194 1650.961113 3333.953857 143 166 195
322.660136 1402.239227 3388.348007 150 175 207
-302.097535 1673.777962 3341.752243 126 152 176
27.667257 1507.999325 3347.155380 91 118 139
908.227348 1191.708565 3461.610794 164 189 223
962.488079 1170.486736 3458.728027 171 194 229
-255.107427 1644.534302 3330.170059 80 106 132
-219.613481 1630.606270 3332.124329 99 132 160
-104.157758 1555.297279 3320.998764 146 175 194
21.085894 1519.619370 3343.894577 101 130 151
21.085894 1519.619370 3343.894577 101 130 151
613.960266 1306.299782 3418.913651 162 190 225
734.020662 1264.749050 3434.175110 115 140 166
-193.168342 1621.687126 3334.133530 163 197 223
296.583295 1423.477364 3378.779984 117 144 180
-292.009354 1679.483223 3334.070969 124 151 177
218.575239 1454.024696 3365.882492 169 193 228
-91.966766 1559.411335 3322.434235 80 107 127
462.489653 1365.327930 3394.248199 140 162 198
-249.560475 1656.865120 3330.711746 100 124 156
119.292998 1497.377110 3355.693817 165 196 241
374.457335 1414.465618 3393.152618 149 179 213
36.293033 1527.616882 3344.536209 156 187 210
341.394305 1422.145557 3383.184433 114 136 178
-161.369348 1615.173531 3327.007675 75 102 123
-161.369348 1615.173531 3327.007675 75 102 123
1064.478016 1143.396854 3449.551392 187 210 244
162.243521 1486.014271 3353.047562 156 183 210
162.243521 1486.014271 3353.047562 156 183 210
-123.575222 1585.069752 3312.108612 90 117 137
151.424921 1499.763870 3352.485657 168 197 224
302.445078 1438.616657 3364.692688 167 189 226
-1199.857426 161.144006 4832.658768 187 208 235
-971.293926 -204.214406 5089.606857 195 224 239
-801.256943 -797.387791 3276.401138 253 222 177
-1129.535961 154.438245 4830.196381 199 220 242
-1309.536457 470.825815 4583.728790 206 224 244
-1336.817551 577.277327 4493.710327 191 212 234
-1171.443272 322.330284 4690.051270 196 220 240
-1305.974388 533.498049 4527.336121 125 146 168
-1316.191673 551.487780 4512.901688 176 197 218
-1133.438396 276.725769 4718.606567 196 220 242
-1372.656918 663.677073 4430.407715 203 221 242
-1337.423706 609.950447 4467.715073 196 219 242
-1262.737465 494.487572 4547.347260 174 196 221
-1282.621956 536.919832 4520.215607 199 225 242
-796.174383 -683.757925 3188.522148 212 169 110
-1175.001144 411.401463 4620.126724 114 137 159
-1395.241833 752.587652 4358.664322 121 138 165
-1401.663017 780.358219 4347.569275 114 130 166
-1341.363907 686.966085 4397.542953 152 166 194
-1298.863792 620.595741 4434.921646 164 182 205
-1414.794731 801.971340 4326.965714 172 192 210
-1414.794731 801.971340 4326.965714 172 192 210
-783.560514 -665.501165 3168.301582 234 188 132
-1435.580349 845.151234 4306.951141 174 191 217
-1419.033337 819.679737 4318.209076 113 132 165
-1308.429050 652.019215 4426.645660 160 178 201
-1375.410175 753.294754 4352.383423 118 135 162
-1358.172989 730.331326 4376.531982 166 183 209
-1367.586708 747.752571 4360.552597 174 192 216
-1224.114513 535.830641 4511.463928 185 202 228
-1431.921482 852.808094 4303.687668 122 138 166
-1292.332458 640.549660 4433.054733 167 185 208
-1440.479374 867.559242 4289.582825 126 141 173
-1375.635910 772.301579 4339.172363 185 206 227
-1394.369793 806.873322 4322.389221 162 183 204
-1359.273911 753.507471 4351.236343 117 134 161
-1430.282211 863.358116 4288.892746 192 212 230
-1266.589069 619.614029 4445.002365 174 194 212
-1410.458660 836.161041 4303.498840 195 215 233
-1402.392292 824.079227 4307.043076 126 144 172
-1414.677143 844.483376 4286.537933 122 140 169
-1306.952000 696.557093 4395.509720 120 138 161
-1420.150757 864.891338 4277.805710 124 141 171
-1413.510513 857.199860 4281.513977 198 218 236
-1174.862099 509.510612 4531.425858 178 201 223
-1174.862099 509.510612 4531.425858 178 201 223
-1394.491577 832.834435 4300.352097 194 212 233
-1394.491577 832.834435 4300.352097 194 212 233
-1346.639442 761.727667 4345.510101 191 210 231
-1354.190159 775.510693 4332.957840 111 126 159
-1336.934280 754.156208 4351.372147 105 125 150
-1417.678738 877.234459 4274.196625 175 193 216
-1358.933353 790.359879 4326.861191 191 211 230
-628.120089 -839.299202 3271.898651 240 206 136
-1406.094933 870.532608 4269.592667 179 197 220
-1349.041462 792.551374 4321.416092 116 136 160
-1180.954933 549.121332 4488.101578 122 140 169
-1399.276638 868.988991 4275.939560 178 196 219
-1393.237305 862.456989 4282.411575 135 155 180
-800.272751 -558.299780 3108.652878 183 139 85
-1406.456470 885.358810 4264.139175 198 217 238
-1400.909233 877.993584 4269.617081 124 141 167
-1400.909233 877.993584 4269.617081 124 141 167
-1407.909584 892.639732 4265.633392 124 141 168
-1283.117867 708.914518 4374.565125 175 193 210
-1355.453014 819.999313 4297.966385 181 199 222
-1355.453014 819.999313 4297.966385 181 199 222
-1383.149719 863.273430 4275.650406 201 221 239
-1383.149719 863.273430 4275.650406 201 221 239
-1330.674553 788.527632 4324.287415 169 189 207
-1340.977097 804.326630 4308.999634 169 188 209
-1147.464657 527.573824 4506.269073 182 202 225
-1305.867767 752.427197 4328.120804 176 196 214
-1305.867767 752.427197 4328.120804 176 196 214
-1286.496449 729.320383 4343.423843 123 138 163
-1286.496449 729.320383 4343.423843 123 138 163
-1395.622444 896.089172 4253.631210 124 141 168
-1166.378021 569.635487 4462.153244 184 206 231
-1309.222603 775.739145 4323.554611 191 209 227
-1351.443481 837.391663 4284.958649 121 138 166
-1351.443481 837.391663 4284.958649 121 138 166
-1125.726414 515.780306 4504.866791 191 212 233
-1330.663490 817.140484 4296.288300 116 133 160
-1314.117527 796.655846 4311.283875 126 143 170
-1391.758728 907.690811 4239.127350 194 212 228
-1290.200710 755.036974 4302.456665 126 146 164
-1265.455723 727.639246 4347.738266 179 194 213
-1393.240452 916.196632 4231.983948 129 145 171
-1393.240452 916.196632 4231.983948 129 145 171
-1265.458965 743.555784 4340.252686 121 136 167
-1058.335018 456.620502 4551.665497 91 112 133
-1374.050522 901.157570 4239.682770 115 132 158
-1226.758957 691.690731 4373.880005 179 198 219
-1226.758957 691.690731 4373.880005 179 198 219
-1089.413261 507.249594 4516.293716 174 194 219
-1358.995056 885.794544 4250.138474 137 155 179
-1234.155846 710.464573 4351.908493 124 140 168
-1139.873886 582.741117 4454.413986 191 214 238
-1139.873886 582.741117 4454.413986 191 214 238
-1306.160545 816.817951 4290.231323 163 180 203
-1321.353817 840.643597 4277.582932 155 172 198
-1321.353817 840.643597 4277.582932 155 172 198
-1356.528950 899.807644 4239.704132 126 144 167
-1153.112316 613.050842 4417.694473 119 140 167
-1341.304684 882.410431 4244.381332 141 160 181
-777.272320 -513.645029 3058.848190 185 145 87
-1329.744339 882.647800 4243.873978 196 216 234
-1297.748947 838.931084 4271.490097 191 212 234
-1297.748947 838.931084 4271.490097 191 212 234
-1029.730606 473.266363 4529.634094 82 104 123
-1282.330132 823.983955 4279.377365 184 200 216
-1339.565372 905.858803 4230.214691 128 147 168
-750.940990 -537.274504 3055.490112 236 184 114
-1288.947582 842.873478 4275.350952 125 144 165
-1342.461681 916.047192 4222.379684 194 210 225
-891.888618 304.162741 4660.778046 84 104 121
-1115.173149 610.756063 4412.567139 127 145 174
-1301.050186 871.737766 4243.980026 167 188 209
-746.014547 -523.308897 3044.967651 248 198 127
-746.014547 -523.308897 3044.967651 248 198 127
-1326.348591 920.548916 4219.224930 168 188 207
-789.970207 -445.188761 3038.377762 142 113 68
-736.484098 -532.387638 3048.616982 246 195 119
-953.826618 430.890608 4556.588745 182 204 229
-1125.559998 662.336206 4381.050873 185 204 227
-1125.559998 662.336206 4381.050873 185 204 227
-1252.986145 836.906433 4258.637238 117 141 159
-985.769463 480.205774 4506.473160 170 189 215
-1304.165936 912.657452 4213.143921 100 122 147
-1328.850460 946.846485 4188.960266 164 186 204
-522.148228 -797.486210 3215.643311 240 198 122
-1302.871799 924.018669 4202.803421 172 194 212
-1285.310936 897.953320 4212.183380 120 138 161
-1247.071743 850.669765 4251.288223 95 119 137
-1142.519951 710.996008 4341.094208 170 190 211
-1250.365925 859.282398 4252.410507 156 180 198
-461.435890 -855.671024 3265.860367 212 152 87
-461.435890 -855.671024 3265.860367 212 152 87
-1270.104885 895.152950 4215.565872 165 186 207
-1270.104885 895.152950 4215.565872 165 186 207
-1306.048203 948.327065 4188.766098 166 188 206
-1313.016510 957.003307 4180.908203 116 138 156
-718.542957 -490.530491 3009.396362 245 198 121
-1170.812702 799.289227 4273.416519 176 201 221
-1170.812702 799.289227 4273.416519 176 201 221
-795.445490 330.389929 4631.846619 129 151 168
-1292.034531 963.697815 4164.848328 111 133 151
-1280.173874 951.404762 4178.614426 161 183 201
-1048.510075 648.952913 4370.452499 167 187 212
-1104.355812 727.297211 4322.097015 107 128 150
-1264.886379 937.740040 4180.132675 105 128 144
-1102.558422 726.915264 4316.805267 102 123 145
-495.338202 -761.020136 3193.617821 241 196 119
-1191.837978 847.616482 4233.911896 152 174 192
-747.485971 -431.107855 2977.093124 219 173 100
-908.605671 491.320610 4494.794083 191 215 237
-908.605671 491.320610 4494.794083 191 215 237
-1168.059635 820.121288 4242.153168 123 144 165
-1279.559040 971.048164 4157.271194 170 192 210
-1279.559040 971.048164 4157.271194 170 192 210
-400.088358 -869.179153 3268.774796 208 147 81
-459.721041 -792.569160 3213.316345 207 151 86
-1218.168831 898.792076 4196.703339 78 101 116
-1253.459263 951.396847 4161.331558 139 162 180
-1036.537647 676.366901 4350.510025 169 192 214
-1282.014847 991.574764 4146.156311 108 129 150
-473.460865 -762.194490 3195.293427 243 208 137
-1057.032871 708.845234 4329.712677 167 191 210
-1150.429058 831.078339 4243.283081 174 197 218
-1150.429058 831.078339 4243.283081 174 197 218
-722.902966 -437.321663 2968.409348 240 196 131
-1036.745167 699.238253 4328.466797 174 197 219
-1268.918037 993.663311 4135.723877 180 202 214
-699.216604 -458.954287 2978.051567 202 156 89
-686.840820 -473.962450 2989.190674 240 191 116
-1059.893990 741.528034 4303.337479 177 199 220
-1231.884193 961.372471 4149.191666 146 171 188
-426.078701 -22.420999 4841.608810 142 170 187
-438.700104 0.991115 4837.799072 197 218 239
-1225.540257 963.491440 4139.545441 138 159 180
-1115.814304 826.354694 4225.868225 171 193 211
-1232.365036 974.641895 4135.952377 170 190 208
-419.335127 -779.854488 3206.967545 247 200 124
-1050.103760 753.575563 4285.124969 168 193 210
-1149.043560 879.736233 4199.168396 158 178 195
-1168.555641 908.414555 4182.022858 155 175 192
-1225.777721 984.417057 4133.260345 78 99 120
-1217.551994 974.798012 4135.738754 63 79 107
-623.270464 -514.391994 3012.834167 234 176 104
-1153.522396 896.304226 4176.953888 107 127 145
-321.839929 -883.220768 3263.150787 206 146 81
-1228.582191 999.353886 4123.339081 118 138 156
-1228.582191 999.353886 4123.339081 118 138 156
-720.073128 -387.131929 2930.465317 216 171 103
-1231.322765 1004.777813 4102.727890 160 182 200
-1218.985176 995.425034 4122.126389 158 178 196
-367.150068 -813.037300 3218.166351 207 144 84
-1189.937592 960.850906 4137.829208 108 127 148
-131.162906 -292.591906 5033.177185 122 149 159
-410.728741 -744.385052 3166.712189 208 148 83
-1211.869240 1006.204700 4114.923096 98 118 136
-1225.000095 1021.695709 4099.465561 162 184 202
-731.911421 -348.904538 2909.622574 189 138 77
-1182.821369 970.772076 4127.615356 171 190 205
-1182.821369 970.772076 4127.615356 171 190 205
-863.752174 594.924021 4387.755203 183 208 232
-1126.038265 916.533375 4158.914948 104 121 147
-871.944332 621.670198 4373.059082 165 186 208
-1201.101875 1014.478874 4102.939987 146 166 183
-726.094007 -334.071279 2895.948792 200 149 86
-1126.427078 932.769680 4150.286865 153 180 200
-1025.329590 811.241341 4223.831558 165 189 209
-333.768606 -798.806286 3205.937958 247 199 128
-1214.079857 1043.733692 4076.702118 151 171 192
-1056.695938 861.665440 4188.762283 177 202 222
-1088.157845 898.870373 4161.423111 164 183 204
-459.244680 174.738872 4667.139053 157 181 201
-1003.069878 811.833858 4229.738235 159 181 199
-723.948717 -318.950772 2882.807922 124 79 22
-1109.054279 935.097313 4142.159653 105 120 147
-1151.984406 986.136436 4108.298111 154 171 192
-1089.766788 913.138485 4154.229355 157 176 197
-724.001741 498.554468 4459.270859 161 188 205
-1134.487820 972.898197 4118.955994 102 116 145
-1170.673656 1018.524265 4086.071777 160 183 201
-1170.673656 1018.524265 4086.071777 160 183 201
-1197.726917 1044.290257 4054.286194 57 85 103
-740.541601 -277.941847 2880.885124 96 62 12
-860.232449 665.314865 4327.576065 157 178 200
-1170.170403 1025.474167 4079.288864 168 190 210
-1123.194790 970.147228 4112.738419 162 178 200
-1125.166225 983.928299 4102.872849 169 184 203
-818.332005 635.797930 4349.401855 97 115 144
-1117.973804 979.304600 4106.006622 135 150 169
-1117.973804 979.304600 4106.006622 135 150 169
-1117.973804 979.304600 4106.006622 135 150 169
-1008.985233 858.421898 4184.115982 159 183 203
-265.679216 5.750400 4765.016937 160 183 200
-1138.271618 1009.249687 4083.908844 165 182 203
-453.056002 231.724906 4628.627014 116 135 150
-1108.939457 977.632332 4102.140808 181 198 219
-990.684700 845.709419 4192.169189 105 125 150
-1112.861347 992.183113 4089.575958 153 169 191
-1112.861347 992.183113 4089.575958 153 169 191
-1066.934013 941.782570 4121.432877 165 181 205
-635.634851 -49.484769 3205.158997 40 43 47
-1038.939762 926.748371 4126.992798 160 180 201
-637.731886 -364.643145 2893.286324 252 211 140
-710.140181 -270.374560 2841.952133 185 139 82
-710.244465 -270.309997 2841.613770 185 139 82
-734.347105 -227.708530 2847.802353 150 115 67
-987.267303 892.695045 4162.389374 137 167 186
-777.176237 670.931244 4309.827423 111 129 160
-777.176237 670.931244 4309.827423 111 129 160
-705.910206 -262.647939 2831.606102 157 111 49
149.042654 -1045.413589 3745.973969 245 209 150
-687.923050 -282.585645 2834.988022 231 180 115
-688.744545 -277.402139 2832.449913 183 132 66
-705.697489 -253.000212 2824.010277 209 169 110
-705.826664 -248.428130 2822.545624 141 93 31
-428.994465 -552.692747 3028.795433 239 189 109
-428.994465 -552.692747 3028.795433 239 189 109
-526.637840 -446.613216 2945.193672 236 198 140
401.865149 -1037.644196 4148.498917 241 178 98
-800.634956 728.636694 4257.347488 95 111 147
-1069.856548 1032.878780 4069.219208 134 158 176
-624.544859 -329.284644 2863.001823 253 207 133
-678.728867 -268.262172 2821.250343 248 204 137
-864.422894 809.677029 4194.892502 144 162 185
-1102.284241 1043.245983 3974.451065 101 181 226
-718.860579 664.399338 4303.651428 154 178 198
-1039.024353 1016.148853 4076.161194 76 96 113
-909.733868 869.985676 4155.981445 153 170 194
-467.445803 -488.110304 2971.218300 235 184 121
-408.064985 336.478376 4513.290024 115 135 152
-946.868515 922.163200 4109.944153 134 150 179
-851.361942 823.797131 4181.287384 107 125 156
-851.361942 823.797131 4181.287384 107 125 156
-342.673588 -605.482101 3051.431084 227 171 112
-908.362961 896.473694 4138.648605 138 155 176
-807.726288 794.055176 4204.782104 157 178 199
-382.240462 345.886803 4500.241852 129 149 174
-1065.592670 1076.010132 4008.806992 142 161 188
-790.557289 785.879278 4204.191589 182 202 220
-790.557289 785.879278 4204.191589 182 202 220
-916.496181 917.924690 4110.547638 163 178 204
-970.930099 975.469398 4067.542648 151 169 188
-626.190472 -285.856795 2825.855446 248 206 141
-300.260758 -623.059893 3068.361664 246 195 118
-1023.514557 1036.926842 4023.918915 178 196 219
-1051.890373 1071.749783 4007.710648 98 117 145
-341.729379 -579.210663 3029.845428 241 180 115
-352.164960 335.929275 4506.924820 183 208 224
-930.750847 944.672680 4084.835815 149 166 193
-675.721788 -222.434378 2785.483551 222 166 101
-1019.510746 1040.208817 4015.884399 133 151 175
-1050.808144 1080.238438 4003.346252 97 115 148
-1040.971661 1070.985031 4002.536011 174 198 218
-704.129505 729.883575 4244.026184 135 156 178
-697.097492 -184.158075 2774.884987 119 73 20
-1015.638351 1050.007820 4011.562347 171 190 211
-871.614456 905.016994 4110.340881 164 185 207
-1049.536514 1091.370869 3984.380722 180 201 229
-1031.855392 1071.710682 3993.975449 105 129 149
-629.582930 -258.595109 2802.018166 251 204 134
-695.815563 -176.593566 2772.143745 164 121 68
-1031.672478 1078.061867 3992.592621 146 167 188
-1022.611904 1070.964050 3998.619461 151 166 193
-364.417791 392.654943 4451.895523 125 146 167
-871.644020 918.089581 4097.493362 156 177 199
-802.169323 849.987602 4151.663589 156 174 193
-1038.965511 1096.403790 3979.300308 103 118 156
-659.571600 -212.105775 2771.035767 251 207 130
-994.214535 1056.669998 3996.688843 160 178 201
-899.829960 961.845303 4063.525009 165 182 204
-1027.075863 1092.784500 3976.613235 188 209 229
-648.489809 -217.815089 2772.564507 252 209 126
-1030.848598 1100.043774 3970.199966 108 125 158
-657.442427 -206.270456 2764.964867 245 209 146
-1034.831333 1108.893490 3966.255188 197 212 232
